ply
format ascii 1.0
element vertex 1279
property float x
property float y
property float z
property uchar red
property uchar green
property uchar blue
end_header
-0.394554 0.205342 0.013441 153 0 76
0.472224 0.132997 0.344211 204 51 127
-0.262854 -0.054088 0.086494 76 0 153
-0.037825 -0.050635 0.141100 76 0 153
0.256313 0.184368 -0.238049 255 0 0
0.069613 0.160407 -0.262410 255 0 0
0.363078 -0.065494 0.095842 76 0 153
-0.022858 0.644425 -0.424578 255 0 0
-0.230379 0.612823 -0.278264 255 0 0
-0.434584 0.184373 -0.169597 153 0 76
0.416111 0.029051 -0.023865 204 51 127
0.088409 -0.059849 -0.074828 76 0 153
-0.336967 0.243164 -0.230962 255 0 0
-0.134086 -0.177948 0.566566 76 0 153
-0.449367 0.138305 0.060073 153 0 76
0.509812 0.197424 -0.099414 204 51 127
0.437372 0.203694 0.203118 204 51 127
-0.026229 0.298995 -0.307106 255 0 0
-0.005853 -0.706416 0.160936 255 0 0
0.019171 -0.554572 0.049837 76 0 153
0.016364 0.699300 -0.378964 255 0 0
0.069649 0.288389 -0.188972 255 0 0
0.019438 -0.540365 0.147743 76 0 153
0.416296 0.159592 0.005864 204 51 127
-0.248940 -0.044667 0.291367 76 0 153
-0.257391 -0.036225 0.356510 76 0 153
-0.494568 0.210194 0.115882 153 0 76
-0.337172 0.407346 -0.181324 255 0 0
-0.393183 -0.021571 0.302015 153 0 76
-0.361841 0.518324 -0.333192 255 0 0
0.416111 0.109786 0.017565 204 51 127
0.479822 0.150490 0.158965 204 51 127
-0.079858 -0.007126 -0.156880 255 0 0
-0.010286 -0.062790 -0.130827 255 0 0
-0.124976 -0.146656 -0.214142 255 0 0
0.411045 -0.110516 0.115449 204 51 127
0.093313 0.640254 -0.421421 255 0 0
-0.350910 0.590252 -0.351757 255 0 0
0.448494 -0.169846 0.025039 204 51 127
0.195236 0.646215 -0.300637 255 0 0
0.050852 -0.291884 0.092170 76 0 153
0.271127 0.683627 -0.307719 255 0 0
0.284859 0.318223 -0.280753 255 0 0
-0.112296 -0.054383 0.057280 76 0 153
-0.301805 0.119169 -0.224105 255 0 0
0.014378 0.090841 -0.267928 255 0 0
0.048220 -0.838945 0.132245 76 0 153
-0.156767 -0.719490 0.020391 0 0 255
-0.119281 0.065784 -0.158271 255 0 0
-0.470968 0.189403 -0.131396 153 0 76
0.146852 0.623821 -0.300033 255 0 0
-0.099208 -0.070381 0.522953 76 0 153
0.292999 -0.038875 0.455821 76 0 153
0.416186 0.100049 -0.064864 204 51 127
0.248418 0.300480 -0.171509 255 0 0
0.410097 -0.173370 0.119127 204 51 127
0.131099 -0.007458 -0.154586 255 0 0
-0.349554 0.024673 -0.105735 255 0 0
-0.393197 0.059587 0.157308 153 0 76
-0.246646 0.449121 -0.325596 255 0 0
-0.355733 0.472302 -0.226961 255 0 0
0.334208 -0.064902 0.507623 76 0 153
-0.114118 -0.692138 0.264098 255 0 0
0.234020 -0.042744 0.332240 76 0 153
0.028350 0.652819 -0.325236 255 0 0
0.410836 -0.120219 0.391517 204 51 127
0.034043 -0.178887 0.480900 76 0 153
0.116316 0.181852 -0.156740 255 0 0
-0.070361 -0.054004 0.063185 76 0 153
0.467086 -0.142051 0.201397 204 51 127
0.408881 -0.044738 0.377478 204 51 127
-0.349812 0.184567 -0.205844 255 0 0
-0.389393 -0.005463 -0.140650 255 0 0
-0.393211 0.089876 0.099488 153 0 76
0.417151 0.013179 0.322464 204 51 127
-0.046358 -0.067573 0.519415 76 0 153
-0.449088 0.141322 -0.094110 153 0 76
-0.316481 0.426675 -0.305763 255 0 0
0.342983 0.021843 -0.218788 255 0 0
0.387978 -0.094522 -0.198357 255 0 0
0.045343 -0.502225 0.062878 76 0 153
0.120584 0.492389 -0.365315 255 0 0
0.076397 -0.685589 0.076643 153 0 76
-0.057564 0.503384 -0.269597 255 0 0
-0.291799 0.628230 -0.387344 255 0 0
0.351568 -0.710697 -0.031289 153 0 76
-0.241790 0.036493 -0.134657 255 0 0
-0.389023 0.118500 -0.139499 255 0 0
-0.179330 -0.067518 0.518814 76 0 153
0.403416 0.226987 -0.154171 255 0 0
-0.229282 -0.050141 0.491624 76 0 153
0.270276 -0.038096 0.315264 76 0 153
0.118941 -0.042857 0.197469 76 0 153
0.390637 -0.082563 0.072163 204 51 127
0.415072 0.290283 -0.207046 255 0 0
-0.339595 -0.046400 0.403490 76 0 153
0.471445 0.150281 -0.108489 204 51 127
0.452314 -0.157166 -0.091030 204 51 127
0.308622 -0.000445 -0.228923 255 0 0
-0.447625 -0.124970 0.082927 153 0 76
-0.332029 -0.054463 0.456474 76 0 153
0.380837 0.531758 -0.243085 255 0 0
-0.466208 0.177373 0.129837 153 0 76
0.372522 0.083033 -0.114663 255 0 0
-0.249883 -0.103451 0.550862 76 0 153
-0.447560 -0.125567 0.033457 153 0 76
-0.179207 0.419104 -0.224065 255 0 0
0.165897 0.689194 -0.360976 255 0 0
-0.395541 0.166558 0.208560 153 0 76
0.043377 -0.822183 0.061043 76 0 153
-0.404133 -0.081056 0.429407 153 0 76
0.003381 0.233528 -0.279243 255 0 0
-0.201222 0.207737 -0.254618 255 0 0
-0.250435 -0.750558 0.420952 255 0 0
0.073249 0.621187 -0.306223 255 0 0
0.036860 -0.055420 0.027267 76 0 153
-0.419608 -0.169037 0.173309 153 0 76
-0.332708 0.513875 -0.225310 255 0 0
0.336107 -0.727937 0.017924 153 0 76
0.445704 -0.160008 0.362651 204 51 127
-0.115216 -0.048814 0.187827 76 0 153
-0.181779 -0.043895 0.304909 76 0 153
-0.151887 0.677369 -0.404695 255 0 0
-0.132720 -0.693645 0.038456 0 0 255
0.264041 0.370159 -0.188591 255 0 0
0.030936 -0.209581 0.134656 76 0 153
0.015571 -0.624843 0.148710 76 0 153
-0.201492 -0.163531 -0.178266 255 0 0
-0.192010 -0.752571 0.340470 255 0 0
-0.025954 -0.040812 -0.262071 255 0 0
0.034234 -0.313927 0.132188 76 0 153
0.094423 0.213343 -0.168165 255 0 0
0.070074 -0.136844 -0.230619 255 0 0
0.005442 -0.167986 0.572082 76 0 153
-0.219388 -0.035639 0.431765 76 0 153
-0.304421 -0.824429 0.495166 76 0 153
-0.425796 -0.797097 -0.079244 153 0 76
0.236015 0.569777 -0.375151 255 0 0
0.001869 -0.042625 0.329483 76 0 153
0.341810 0.388047 -0.182927 255 0 0
0.077861 0.527740 -0.386410 255 0 0
0.034596 -0.751127 -0.143999 204 51 127
0.413157 -0.048303 -0.165259 255 0 0
-0.391495 -0.132387 0.147466 153 0 76
-0.043588 -0.691345 0.147796 255 0 0
-0.363505 0.641574 -0.310084 255 0 0
0.155340 -0.044068 0.456929 76 0 153
-0.039177 0.148505 -0.165043 255 0 0
-0.372661 -0.077338 0.385567 153 0 76
-0.054565 0.041893 -0.266478 255 0 0
0.079601 -0.041953 0.345978 76 0 153
0.054296 -0.218743 0.535279 76 0 153
-0.338040 -0.055783 0.142047 76 0 153
0.146067 0.448110 -0.352075 255 0 0
-0.276088 0.609390 -0.270237 255 0 0
-0.282720 -0.817614 0.529521 76 0 153
-0.213274 0.072230 -0.136038 255 0 0
-0.449413 -0.052991 0.194395 153 0 76
0.028434 -0.070317 -0.178310 255 0 0
-0.232486 -0.010284 -0.241941 255 0 0
-0.268317 -0.145947 -0.188728 255 0 0
-0.278220 -0.164905 0.555531 76 0 153
-0.258983 0.222909 -0.240540 255 0 0
0.133751 -0.702973 0.080536 153 0 76
-0.170315 -0.212122 0.553599 76 0 153
-0.390352 -0.035579 0.164654 153 0 76
-0.293176 0.249819 -0.241304 255 0 0
0.416111 0.119998 0.125768 204 51 127
0.363513 0.214970 -0.220452 255 0 0
0.149214 -0.743003 0.327254 76 0 153
0.110645 0.096510 -0.161337 255 0 0
0.221383 0.399665 -0.316632 255 0 0
-0.070370 0.616622 -0.302910 255 0 0
0.251228 -0.757285 0.390072 76 0 153
-0.449404 0.068256 0.222376 153 0 76
0.336693 -0.039033 0.414986 76 0 153
0.280523 -0.045406 0.275288 76 0 153
-0.028639 0.459693 -0.358224 255 0 0
-0.213632 -0.047696 0.221822 76 0 153
-0.381639 -0.158851 0.307223 153 0 76
-0.392876 0.008973 0.225302 153 0 76
-0.279165 0.181538 -0.227007 255 0 0
-0.281576 0.553197 -0.253452 255 0 0
-0.011361 -0.718874 -0.239912 204 51 127
-0.306380 0.258487 -0.126818 255 0 0
-0.024661 -0.048000 0.488155 76 0 153
0.339239 0.267661 -0.134313 255 0 0
0.088653 0.572349 -0.401299 255 0 0
0.249991 -0.830610 0.492958 204 51 127
-0.224128 -0.708400 0.454776 255 0 0
0.454060 0.140915 -0.157553 204 51 127
-0.025678 -0.512325 0.131552 76 0 153
0.369706 0.535713 -0.345373 255 0 0
-0.023838 -0.824775 -0.402877 0 127 127
-0.285267 -0.123687 0.550181 76 0 153
-0.013765 0.021792 -0.267878 255 0 0
-0.216906 -0.040960 -0.125647 255 0 0
0.155306 -0.045061 0.149010 76 0 153
0.212680 -0.058347 0.495697 76 0 153
-0.393406 0.055362 0.003143 153 0 76
-0.278650 -0.058797 0.505063 76 0 153
-0.099839 0.093517 -0.257642 255 0 0
0.380703 -0.072318 -0.122813 255 0 0
0.274272 -0.722595 0.492483 76 0 153
-0.230892 -0.113793 -0.228010 255 0 0
-0.390014 -0.813686 -0.039059 153 0 76
-0.392915 -0.731686 -0.008268 0 0 255
0.462472 0.238981 0.100504 204 51 127
-0.448331 0.067916 -0.108556 153 0 76
-0.049818 0.231440 -0.276802 255 0 0
-0.156321 -0.064270 -0.126678 76 0 153
-0.393464 0.027029 0.079786 153 0 76
-0.449413 0.089651 -0.015573 153 0 76
0.416111 0.047137 0.156113 204 51 127
0.388362 -0.159669 0.464139 76 0 153
-0.414497 -0.758495 -0.063646 0 0 255
-0.250759 -0.758172 0.499257 255 0 0
-0.058835 0.033137 -0.163806 255 0 0
0.080192 -0.687041 0.193693 76 0 153
0.074514 0.044874 -0.159262 255 0 0
-0.389918 -0.176177 0.058484 153 0 76
-0.235378 -0.076019 -0.238527 255 0 0
-0.306434 0.377774 -0.175544 255 0 0
-0.068416 0.566798 -0.291095 255 0 0
0.445036 0.175607 -0.171670 204 51 127
-0.282251 0.361282 -0.293107 255 0 0
0.349509 0.465442 -0.214014 255 0 0
-0.451515 -0.052652 0.382082 153 0 76
0.102249 -0.175089 -0.175751 255 0 0
0.116377 -0.044216 -0.145334 255 0 0
-0.314131 0.080239 -0.220417 255 0 0
-0.449413 0.000437 0.077240 153 0 76
0.347707 -0.156255 -0.158731 255 0 0
0.258737 0.571436 -0.267908 255 0 0
0.008382 -0.470272 0.058795 76 0 153
-0.268669 -0.058614 -0.009725 76 0 153
0.136149 -0.141855 0.567506 76 0 153
-0.482049 0.221260 0.192751 153 0 76
-0.357273 -0.054348 0.274390 76 0 153
-0.452679 0.242534 -0.085288 153 0 76
0.287400 -0.693772 0.010405 153 0 76
-0.002128 -0.579850 0.146262 76 0 153
0.379569 0.178391 -0.106214 255 0 0
-0.175959 0.477868 -0.349386 255 0 0
0.397069 0.622519 -0.341298 255 0 0
-0.362478 -0.056366 -0.205462 255 0 0
0.292106 0.230376 -0.246632 255 0 0
0.472378 -0.064340 0.220480 204 51 127
0.472294 -0.105588 0.026832 204 51 127
0.428593 -0.837179 -0.017974 255 0 0
-0.154388 -0.719953 0.069395 0 0 255
0.472648 -0.048578 0.066826 204 51 127
0.062005 0.341564 -0.208211 255 0 0
-0.393858 0.002562 0.049329 153 0 76
-0.400638 0.195987 -0.186845 255 0 0
-0.424975 -0.157782 0.337964 153 0 76
0.034596 -0.720935 -0.084517 204 51 127
0.462362 0.237812 -0.153149 204 51 127
0.046659 0.657811 -0.423748 255 0 0
-0.083651 0.694158 -0.394947 255 0 0
-0.176193 0.005825 -0.143879 255 0 0
-0.036113 -0.044772 0.279450 76 0 153
0.289244 -0.051076 0.147837 76 0 153
0.411033 0.065608 -0.134862 255 0 0
0.302807 -0.734191 -0.019705 153 0 76
0.066399 -0.054024 0.061148 76 0 153
-0.212631 -0.698694 0.043737 0 0 255
-0.043491 -0.753185 0.084136 0 0 255
0.348107 0.517237 -0.227540 255 0 0
-0.230705 -0.831504 0.460069 153 76 0
0.028579 -0.035106 0.377675 76 0 153
0.223736 0.238184 -0.155683 255 0 0
0.125168 0.496601 -0.263001 255 0 0
0.355681 0.410142 -0.294200 255 0 0
0.264107 -0.193945 0.494142 76 0 153
0.055704 -0.077725 0.531002 76 0 153
0.009064 -0.759480 0.005282 204 51 127
0.313596 0.355298 -0.172288 255 0 0
-0.433817 -0.159173 0.231651 153 0 76
0.404922 -0.103331 -0.008362 204 51 127
-0.202616 0.610960 -0.391455 255 0 0
0.507680 0.193092 0.116513 204 51 127
0.307166 0.047909 -0.122569 255 0 0
-0.382314 0.252306 -0.128540 255 0 0
0.223317 0.430934 -0.219389 255 0 0
0.426168 0.133205 0.279958 204 51 127
0.483062 0.173947 0.298211 204 51 127
0.309937 0.690429 -0.352120 255 0 0
-0.192052 -0.068402 -0.146251 255 0 0
0.232538 -0.148239 -0.199278 255 0 0
0.057209 -0.765516 0.158328 76 0 153
0.468128 0.242452 0.019605 204 51 127
0.176788 0.660300 -0.410711 255 0 0
0.221304 0.171988 -0.244141 255 0 0
0.406598 0.463276 -0.293029 255 0 0
0.404889 0.275559 -0.143937 255 0 0
-0.124419 0.193130 -0.154261 255 0 0
-0.383260 -0.171230 -0.114602 153 0 76
-0.449412 -0.088244 0.014054 153 0 76
0.128454 0.085924 -0.257314 255 0 0
0.467512 -0.858117 -0.084085 0 255 0
-0.011361 -0.736711 -0.059946 204 51 127
-0.008380 0.189799 -0.167476 255 0 0
-0.124538 -0.037245 0.329726 76 0 153
0.446507 -0.107433 -0.153289 204 51 127
0.472561 0.049771 0.091275 204 51 127
-0.309649 -0.177317 0.473326 76 0 153
0.075989 -0.045913 0.131818 76 0 153
-0.388635 0.454410 -0.227533 255 0 0
-0.449410 0.088125 0.175547 153 0 76
0.113928 -0.037536 0.321700 76 0 153
-0.184763 0.230592 -0.150751 255 0 0
-0.385260 -0.110913 -0.152687 153 0 76
-0.156950 0.568869 -0.389911 255 0 0
-0.392989 0.036523 -0.072317 153 0 76
-0.253740 -0.217437 0.518184 76 0 153
-0.436789 -0.158174 -0.056905 153 0 76
0.034596 -0.739514 -0.212793 204 51 127
0.035285 0.409364 -0.238203 255 0 0
0.444447 -0.153201 0.408037 204 51 127
0.268538 0.045790 -0.233714 255 0 0
-0.421321 0.135895 -0.164093 153 0 76
0.211095 0.304217 -0.290444 255 0 0
-0.291723 -0.018442 -0.113913 255 0 0
0.142693 -0.218954 0.533958 76 0 153
-0.126543 -0.211679 0.498134 76 0 153
0.058704 0.586385 -0.300318 255 0 0
-0.322898 0.434756 -0.201929 255 0 0
0.401866 0.410952 -0.217534 255 0 0
-0.286355 -0.755290 0.026153 0 0 255
-0.056921 -0.157004 0.570372 76 0 153
-0.106219 -0.039006 -0.148226 255 0 0
-0.379909 0.286827 -0.185924 255 0 0
-0.373237 -0.085388 0.162409 76 0 153
-0.449313 0.034475 -0.086752 153 0 76
-0.410805 0.127278 0.308217 153 0 76
0.308266 -0.205555 0.508542 76 0 153
0.472648 -0.026814 -0.020519 204 51 127
0.074389 -0.697278 0.153814 76 0 153
0.510710 0.176404 0.223461 204 51 127
0.033204 -0.715495 -0.257059 204 51 127
0.498098 0.138419 0.266301 204 51 127
0.235166 0.699131 -0.342446 255 0 0
0.472239 -0.755561 -0.026874 153 0 76
-0.412020 -0.159810 0.393358 153 0 76
-0.220454 0.141588 -0.239407 255 0 0
-0.442081 -0.769420 -0.036428 76 153 0
-0.149363 -0.730284 0.281455 255 0 0
-0.175619 -0.048811 0.082014 76 0 153
0.416365 0.147609 0.161156 204 51 127
0.043676 0.359199 -0.328450 255 0 0
-0.465131 -0.797591 -0.064678 76 0 153
0.263689 -0.793058 0.474537 204 51 127
-0.142283 0.595662 -0.287877 255 0 0
-0.305494 -0.128420 -0.201194 255 0 0
-0.027544 -0.400584 0.091878 76 0 153
-0.047023 0.583640 -0.406549 255 0 0
0.312169 -0.063376 -0.220562 255 0 0
0.489815 0.215138 -0.164000 204 51 127
-0.384564 -0.168416 -0.035357 153 0 76
-0.118531 0.525551 -0.265915 255 0 0
-0.201739 0.387031 -0.202167 255 0 0
-0.363154 0.625911 -0.352445 255 0 0
-0.076653 -0.738707 0.046206 0 0 255
-0.133631 0.497673 -0.368401 255 0 0
0.205363 -0.740858 0.060175 153 0 76
0.098746 0.688965 -0.387567 255 0 0
-0.144584 -0.045913 0.257221 76 0 153
0.286677 -0.032164 -0.131868 255 0 0
0.127392 -0.694277 0.275201 76 0 153
0.312827 -0.051825 0.038061 76 0 153
-0.059139 0.524157 -0.384830 255 0 0
0.416111 -0.016530 0.027559 204 51 127
-0.377509 -0.726024 -0.051433 0 0 255
-0.475572 -0.842400 -0.033358 76 0 153
0.053902 0.459614 -0.363548 255 0 0
0.445985 -0.069264 -0.161145 204 51 127
-0.002862 -0.044321 0.160608 76 0 153
0.243588 0.638613 -0.295133 255 0 0
-0.231585 0.349261 -0.182517 255 0 0
0.155889 0.048896 -0.156510 255 0 0
0.047413 -0.405070 0.118858 76 0 153
0.164178 -0.041778 0.351903 76 0 153
0.173503 -0.041607 0.230326 76 0 153
-0.157756 0.365100 -0.317722 255 0 0
0.006368 0.285650 -0.297685 255 0 0
-0.330421 -0.168396 -0.148628 255 0 0
-0.444686 -0.859974 -0.010217 76 0 153
0.191864 0.208529 -0.155228 255 0 0
-0.391751 0.062870 -0.153629 255 0 0
0.414066 0.002688 -0.145046 255 0 0
-0.411210 0.234246 -0.068970 153 0 76
0.174447 -0.737812 0.284200 76 0 153
0.255034 0.264916 -0.267361 255 0 0
-0.382061 0.202834 -0.099501 255 0 0
-0.378583 0.022550 -0.198945 255 0 0
0.416111 -0.004372 0.216510 204 51 127
-0.229273 0.278697 -0.267459 255 0 0
0.068652 0.465454 -0.251347 255 0 0
-0.449413 0.027567 -0.028182 153 0 76
0.018548 0.594503 -0.405820 255 0 0
0.181024 0.560562 -0.272516 255 0 0
-0.145812 -0.705306 0.347816 255 0 0
0.148126 0.266521 -0.178683 255 0 0
-0.022651 -0.034567 0.407290 76 0 153
-0.481346 0.240731 -0.018382 153 0 76
-0.366248 -0.076009 0.223502 76 0 153
0.197001 0.172282 -0.144706 255 0 0
0.000298 -0.695342 -0.123652 204 51 127
0.393546 -0.079714 0.245374 204 51 127
-0.298569 0.549882 -0.359779 255 0 0
-0.195585 0.515521 -0.255480 255 0 0
0.443525 0.095193 0.353664 204 51 127
0.475560 0.130110 0.192484 204 51 127
0.034596 -0.730124 -0.339853 204 51 127
-0.283329 0.484438 -0.223150 255 0 0
-0.449413 0.030191 0.028604 153 0 76
-0.254802 -0.842810 0.435600 153 76 0
0.174789 0.246862 -0.271196 255 0 0
-0.077749 -0.044492 0.458598 76 0 153
0.199060 -0.174615 0.566796 76 0 153
0.144127 0.020301 -0.260352 255 0 0
0.128358 -0.053372 0.078854 76 0 153
0.414426 -0.110017 -0.179495 204 51 127
0.020738 -0.768251 -0.366003 127 127 0
0.250480 0.340790 -0.289827 255 0 0
-0.465926 0.085510 0.317631 153 0 76
-0.111497 0.618600 -0.407084 255 0 0
0.197810 0.501099 -0.362858 255 0 0
-0.389587 0.572818 -0.286504 255 0 0
0.329510 -0.830222 0.471904 153 0 76
-0.412093 0.219814 0.157780 153 0 76
-0.361292 -0.707451 -0.003283 0 0 255
0.000373 -0.725534 -0.384881 204 51 127
-0.397739 0.154000 0.242699 153 0 76
-0.302928 -0.719280 -0.026853 0 0 255
0.341963 0.266876 -0.246247 255 0 0
-0.112078 -0.035275 0.374939 76 0 153
-0.494239 0.205509 -0.026249 153 0 76
-0.161238 -0.039946 0.460534 76 0 153
0.025208 0.341477 -0.214133 255 0 0
0.125817 -0.056337 0.010639 76 0 153
0.419994 0.200791 0.141803 204 51 127
0.003597 -0.773008 0.147693 76 0 153
-0.165932 0.150488 -0.254720 255 0 0
-0.280017 -0.063156 -0.087000 76 0 153
-0.311887 -0.045161 -0.099482 255 0 0
-0.255023 0.531126 -0.244139 255 0 0
0.226667 0.014819 -0.143478 255 0 0
-0.102715 0.336020 -0.309234 255 0 0
-0.450305 -0.002784 0.325335 153 0 76
-0.192203 -0.059479 -0.049820 76 0 153
-0.031548 -0.114200 -0.253155 255 0 0
0.466399 -0.738819 -0.069371 153 0 76
-0.001565 -0.273377 0.061904 76 0 153
-0.091000 -0.040791 0.245668 76 0 153
0.416111 -0.007178 -0.011541 204 51 127
0.082668 -0.755388 0.078944 153 0 76
0.211271 -0.045919 0.259270 76 0 153
0.061546 -0.031961 -0.154631 255 0 0
0.289009 -0.059474 -0.030736 76 0 153
0.322747 -0.848792 0.506135 153 0 76
0.260348 0.222831 -0.137691 255 0 0
-0.358907 -0.067640 -0.009766 153 0 76
-0.241788 0.062032 -0.234626 255 0 0
-0.011361 -0.722541 -0.309196 204 51 127
-0.055610 -0.120837 0.560122 76 0 153
-0.382175 -0.092444 0.304846 153 0 76
-0.452273 -0.003787 0.393908 153 0 76
0.013246 -0.132416 0.564799 76 0 153
0.039843 0.169454 -0.160776 255 0 0
-0.130750 -0.089558 0.540790 76 0 153
0.232206 -0.701399 0.380229 76 0 153
0.113140 0.672388 -0.415933 255 0 0
0.078199 0.297957 -0.299752 255 0 0
-0.069525 0.362847 -0.321476 255 0 0
0.431414 0.232715 -0.043879 204 51 127
0.405781 0.096241 -0.098625 255 0 0
0.304304 -0.043133 0.213504 76 0 153
0.316679 0.364439 -0.292166 255 0 0
-0.301280 -0.796360 0.470243 76 0 153
-0.117828 -0.054948 -0.069554 76 0 153
0.477852 0.116079 0.243433 204 51 127
0.472648 -0.087983 -0.050212 204 51 127
0.126348 -0.738061 0.295748 76 0 153
-0.147632 0.430249 -0.342399 255 0 0
0.472648 0.103462 0.037657 204 51 127
-0.229376 -0.863890 0.490718 153 76 0
-0.077383 0.364861 -0.218626 255 0 0
0.193530 -0.119585 0.552977 76 0 153
0.416616 0.174573 -0.050490 204 51 127
0.243077 0.085574 -0.239673 255 0 0
0.033184 -0.676083 0.144306 76 0 153
0.438866 -0.169293 0.225668 204 51 127
-0.019666 0.081600 -0.165600 255 0 0
0.040962 -0.188769 0.072343 76 0 153
-0.393267 -0.010886 -0.019608 153 0 76
0.229932 -0.047250 0.114452 76 0 153
0.054403 -0.055074 -0.086029 255 0 0
-0.377264 0.250713 -0.191617 255 0 0
0.349809 0.310537 -0.149168 255 0 0
-0.066374 -0.107285 -0.247799 255 0 0
0.047411 -0.800271 -0.354602 127 0 127
-0.024612 -0.300300 0.117118 76 0 153
-0.199272 0.295363 -0.169454 255 0 0
-0.215145 -0.039669 0.279122 76 0 153
0.409606 -0.038341 0.316632 204 51 127
0.416111 0.018896 0.051937 204 51 127
-0.129566 -0.176498 -0.168374 255 0 0
-0.396309 0.102239 0.285682 153 0 76
-0.449413 0.102051 0.045356 153 0 76
-0.349705 -0.056783 -0.088026 76 0 153
-0.393247 0.135848 0.172972 153 0 76
0.029106 -0.700801 -0.152333 204 51 127
-0.422996 -0.022891 -0.163030 153 0 76
0.182926 0.380305 -0.316898 255 0 0
-0.493177 0.224850 0.064565 153 0 76
-0.033813 -0.655231 0.121165 76 0 153
0.017350 -0.718730 0.049291 76 0 153
0.263467 -0.198073 0.566486 76 0 153
0.422396 -0.162082 0.327781 204 51 127
0.038089 -0.040888 0.249071 76 0 153
0.288735 -0.810971 0.492580 76 0 153
-0.331859 0.279778 -0.137683 255 0 0
-0.393195 0.130213 0.119725 153 0 76
0.248213 0.373472 -0.301924 255 0 0
0.038949 0.525775 -0.273653 255 0 0
-0.006167 0.007940 -0.160569 255 0 0
-0.011361 -0.740159 -0.191522 204 51 127
0.354285 -0.061438 -0.066120 76 0 153
-0.449413 -0.027881 -0.060113 153 0 76
-0.052127 -0.202941 0.490431 76 0 153
0.256936 -0.040179 0.395130 76 0 153
0.416134 0.060738 0.255886 204 51 127
0.013419 -0.451822 0.139036 76 0 153
0.318206 -0.063085 -0.075179 76 0 153
-0.378996 0.341221 -0.212022 255 0 0
0.413988 0.129962 -0.160493 255 0 0
0.406441 -0.163223 0.251654 204 51 127
-0.100139 0.204097 -0.269237 255 0 0
0.293392 0.169420 -0.121797 255 0 0
-0.003363 -0.210230 0.496005 76 0 153
0.093922 -0.051620 0.481909 76 0 153
-0.449414 0.106529 -0.075953 153 0 76
-0.050190 -0.067456 -0.157239 255 0 0
-0.403130 -0.828997 -0.069932 153 0 76
-0.381355 0.093518 -0.196570 255 0 0
-0.284838 0.058908 -0.117078 255 0 0
-0.143721 0.095610 -0.154950 255 0 0
0.497526 -0.833215 -0.064917 0 255 0
-0.246835 -0.735310 0.039091 0 0 255
0.377257 0.370243 -0.166565 255 0 0
0.101177 -0.054447 -0.263615 255 0 0
-0.242275 -0.050193 0.057190 76 0 153
-0.355975 0.288494 -0.242723 255 0 0
0.424483 0.224380 0.076545 204 51 127
0.319962 0.069664 -0.220674 255 0 0
0.197277 0.101956 -0.149280 255 0 0
0.332805 0.463694 -0.320933 255 0 0
0.119712 0.344756 -0.312470 255 0 0
-0.028778 -0.459479 0.100457 76 0 153
0.490047 -0.840261 -0.016379 0 255 0
0.049376 -0.016690 -0.262160 255 0 0
0.343568 0.588566 -0.256831 255 0 0
-0.374717 0.376355 -0.179855 255 0 0
0.281590 0.297248 -0.157518 255 0 0
-0.312724 -0.048004 0.309531 76 0 153
0.392586 -0.090344 -0.091641 204 51 127
-0.038731 -0.807653 0.101497 76 0 153
0.418414 0.077868 0.294069 204 51 127
0.258437 0.413265 -0.210785 255 0 0
-0.272567 0.214573 -0.125922 255 0 0
-0.277819 -0.695306 0.002376 0 0 255
-0.011361 -0.752173 -0.258107 204 51 127
0.295845 0.506099 -0.237760 255 0 0
0.127664 -0.179843 0.481564 76 0 153
-0.271662 0.690642 -0.362271 255 0 0
0.257062 -0.054164 -0.044593 76 0 153
-0.163513 0.037176 -0.254945 255 0 0
0.395271 -0.109315 0.499987 76 0 153
-0.270056 0.310449 -0.164777 255 0 0
0.416990 0.552949 -0.297228 255 0 0
-0.006260 -0.326874 0.063371 76 0 153
0.426787 0.246281 -0.138074 204 51 127
-0.393038 0.083124 -0.019343 153 0 76
-0.322802 0.577628 -0.367906 255 0 0
-0.025971 0.266006 -0.181708 255 0 0
-0.129483 0.283691 -0.184048 255 0 0
0.163176 -0.069191 -0.164570 255 0 0
0.292821 0.679684 -0.379719 255 0 0
-0.114495 -0.056904 0.493415 76 0 153
0.113851 0.674532 -0.325058 255 0 0
0.229997 0.486282 -0.346516 255 0 0
-0.203907 -0.213697 0.501879 76 0 153
0.258618 -0.041507 0.436593 76 0 153
-0.181803 -0.745577 0.404180 255 0 0
-0.099685 0.450964 -0.241732 255 0 0
-0.097367 -0.738029 0.087803 0 0 255
0.498887 0.225055 0.190718 204 51 127
-0.388463 -0.141549 -0.098548 153 0 76
-0.392876 0.041085 0.190139 153 0 76
0.227964 0.152926 -0.143400 255 0 0
0.451221 -0.862349 -0.013903 255 0 0
0.492693 -0.792594 -0.075184 0 255 0
-0.215021 -0.051673 0.129366 76 0 153
0.230246 0.432754 -0.327012 255 0 0
0.402277 0.290814 -0.175482 255 0 0
0.144229 0.687904 -0.332966 255 0 0
-0.339814 0.132264 -0.106147 255 0 0
-0.364306 -0.078051 0.083331 76 0 153
0.333114 -0.190300 0.489332 76 0 153
0.464869 -0.144370 0.287835 204 51 127
-0.014655 -0.540924 0.055922 76 0 153
-0.025802 -0.427782 0.112358 76 0 153
-0.378174 -0.141783 0.458023 76 0 153
-0.337225 -0.702922 -0.030258 0 0 255
-0.066898 0.416453 -0.340930 255 0 0
0.406074 0.186615 -0.170586 255 0 0
0.199370 -0.207935 0.540980 76 0 153
-0.396277 0.051049 0.320243 153 0 76
-0.478351 0.160839 0.299339 153 0 76
0.042924 0.242578 -0.173712 255 0 0
-0.253252 -0.034948 0.420822 76 0 153
-0.089878 0.470324 -0.358038 255 0 0
-0.413424 0.090246 0.347920 153 0 76
0.356804 -0.165499 0.539536 76 0 153
-0.348132 0.057347 -0.114412 255 0 0
-0.477922 0.228551 -0.149177 153 0 76
0.152856 0.339630 -0.204033 255 0 0
0.472648 0.042105 -0.059663 204 51 127
-0.449124 0.011197 0.261505 153 0 76
-0.229374 -0.718041 -0.003078 0 0 255
0.344617 -0.743706 -0.033326 153 0 76
-0.025952 -0.244904 0.111761 76 0 153
-0.291808 0.091807 -0.120240 255 0 0
-0.375599 0.413210 -0.221092 255 0 0
-0.052956 -0.050481 0.032322 76 0 153
0.385982 0.163677 -0.196983 255 0 0
-0.170940 0.599480 -0.393402 255 0 0
0.109393 0.012262 -0.263679 255 0 0
-0.159121 -0.759819 0.338567 255 0 0
0.253722 -0.123844 0.554672 76 0 153
-0.154445 0.351045 -0.204274 255 0 0
0.435296 -0.706153 -0.054175 153 0 76
0.302364 -0.118626 0.556705 76 0 153
-0.398409 -0.169073 0.254372 153 0 76
0.224491 0.138485 -0.243006 255 0 0
-0.280940 0.019411 -0.123429 255 0 0
0.076361 0.219126 -0.272118 255 0 0
-0.382177 -0.101028 0.043245 153 0 76
0.242520 -0.049500 0.062328 76 0 153
-0.449413 0.084316 0.110758 153 0 76
0.209435 -0.766070 0.037662 153 0 76
0.002762 -0.097572 0.540159 76 0 153
-0.093369 0.492005 -0.262215 255 0 0
0.355098 -0.109931 -0.202516 255 0 0
0.413432 -0.144251 0.001322 204 51 127
-0.364478 0.387515 -0.268561 255 0 0
0.114693 -0.208866 0.515515 76 0 153
-0.178951 -0.034715 0.390827 76 0 153
-0.204814 0.447923 -0.223803 255 0 0
-0.299944 -0.048468 0.464282 76 0 153
-0.009882 0.521481 -0.380075 255 0 0
0.398204 0.240116 -0.189782 255 0 0
0.009064 -0.762946 -0.125736 204 51 127
-0.379115 0.179852 -0.129070 255 0 0
-0.030307 0.331692 -0.313100 255 0 0
0.025452 0.540561 -0.386761 255 0 0
0.326192 -0.070689 -0.128458 255 0 0
0.419477 -0.178225 0.040475 204 51 127
-0.403091 0.229270 -0.189077 255 0 0
0.468580 -0.138221 0.104393 204 51 127
-0.055583 -0.034603 0.401541 76 0 153
0.162425 -0.056087 0.020894 76 0 153
0.471693 -0.006004 0.297879 204 51 127
0.104230 0.019337 -0.156611 255 0 0
0.472366 -0.032666 0.149375 204 51 127
0.006707 -0.049852 0.040500 76 0 153
0.032145 -0.704749 -0.049888 204 51 127
0.414617 -0.148201 -0.092790 204 51 127
0.416233 0.098114 0.233160 204 51 127
-0.095671 0.248196 -0.175513 255 0 0
0.407797 -0.173953 -0.029465 204 51 127
-0.449413 -0.009820 0.110273 153 0 76
0.461871 0.052490 -0.146647 204 51 127
0.372437 0.565697 -0.255471 255 0 0
-0.390091 -0.139207 0.206385 153 0 76
0.485961 0.176745 -0.029574 204 51 127
-0.003039 0.620190 -0.313007 255 0 0
-0.030332 -0.706700 0.070554 76 0 153
-0.004648 -0.807342 0.052451 76 0 153
0.236785 0.469181 -0.229760 255 0 0
-0.011955 -0.048152 0.086972 76 0 153
0.477705 0.162986 0.070418 204 51 127
0.218540 0.022634 -0.249125 255 0 0
-0.206000 0.171330 -0.143564 255 0 0
-0.141723 -0.052894 0.092619 76 0 153
-0.304801 0.475745 -0.331391 255 0 0
0.337104 -0.045740 0.237720 76 0 153
0.001132 -0.688725 0.039546 204 51 127
0.383457 -0.072588 0.456733 204 51 127
0.074696 -0.198178 0.557454 76 0 153
-0.207625 0.698579 -0.346019 255 0 0
0.157409 -0.765423 0.304199 76 0 153
0.518291 0.218229 0.078929 204 51 127
-0.447568 0.079383 0.380885 153 0 76
0.341626 0.514599 -0.343566 255 0 0
0.414059 -0.115831 0.358859 204 51 127
-0.100255 -0.743830 0.214005 255 0 0
-0.312731 -0.052436 0.083350 76 0 153
0.165622 -0.704608 0.342776 76 0 153
-0.449167 -0.101381 0.232646 153 0 76
-0.178400 0.552348 -0.271781 255 0 0
0.010955 0.471025 -0.260064 255 0 0
-0.323894 0.661763 -0.298041 255 0 0
-0.054922 0.285561 -0.187271 255 0 0
0.403671 -0.067179 -0.031091 204 51 127
-0.230319 0.240408 -0.253290 255 0 0
0.189760 0.336504 -0.191736 255 0 0
0.044815 0.696141 -0.395312 255 0 0
-0.069209 -0.690076 0.084885 0 0 255
0.471857 -0.106589 0.184971 204 51 127
0.412524 -0.144666 0.137775 204 51 127
0.174024 0.445259 -0.238530 255 0 0
0.288165 0.470066 -0.220566 255 0 0
-0.449413 -0.029836 0.245502 153 0 76
0.106375 0.521439 -0.273687 255 0 0
-0.350593 0.213706 -0.109920 255 0 0
0.160566 -0.734045 0.026493 153 0 76
0.160544 0.116908 -0.150735 255 0 0
-0.479391 0.191872 0.000057 153 0 76
-0.139364 -0.758299 0.311349 255 0 0
0.208924 0.538638 -0.369293 255 0 0
0.083698 -0.052549 -0.024333 76 0 153
0.416111 0.050874 0.003489 204 51 127
0.305904 -0.751827 0.465369 76 0 153
-0.449144 -0.069684 -0.088291 153 0 76
-0.208320 0.115523 -0.142535 255 0 0
-0.212432 -0.699003 0.397588 255 0 0
0.236366 -0.093052 -0.239305 255 0 0
0.321954 0.206753 -0.122408 255 0 0
-0.449414 -0.078325 -0.056311 153 0 76
0.189721 -0.763926 0.340884 76 0 153
0.353790 -0.012507 -0.113952 255 0 0
0.050087 -0.469724 0.108159 76 0 153
-0.167304 -0.036888 0.338640 76 0 153
0.404332 -0.089262 0.335903 204 51 127
0.081270 -0.758167 0.199306 76 0 153
-0.148577 -0.164536 -0.197457 255 0 0
-0.164974 -0.056461 0.015615 76 0 153
0.471569 -0.112232 0.354019 204 51 127
-0.350369 0.102511 -0.114908 255 0 0
-0.441555 -0.713233 -0.035834 0 0 255
-0.177468 -0.128198 0.563025 76 0 153
0.472648 0.119317 -0.057648 204 51 127
0.360781 -0.095491 0.514707 76 0 153
-0.023488 0.674145 -0.329638 255 0 0
0.472543 0.108052 0.129879 204 51 127
0.217992 0.502420 -0.250962 255 0 0
-0.190006 -0.717625 0.057844 0 0 255
-0.041712 -0.145714 -0.231302 255 0 0
0.128751 -0.047088 0.485525 76 0 153
0.211955 -0.057878 -0.013850 76 0 153
0.166757 -0.005254 -0.252345 255 0 0
0.034596 -0.747657 -0.108330 204 51 127
0.246884 -0.218487 0.536414 76 0 153
0.389477 -0.744253 0.000147 153 0 76
0.336906 -0.056418 -0.002303 76 0 153
0.278951 -0.719565 0.429652 76 0 153
0.061955 -0.744211 0.101538 76 0 153
0.364314 0.650412 -0.328712 255 0 0
-0.001009 0.476754 -0.364264 255 0 0
-0.394584 0.485600 -0.266329 255 0 0
0.002747 0.316558 -0.200637 255 0 0
-0.084808 0.389829 -0.335265 255 0 0
-0.014140 0.126696 -0.160243 255 0 0
-0.084138 -0.061997 -0.114661 76 0 153
-0.349733 0.349415 -0.269956 255 0 0
0.074378 0.525566 -0.278000 255 0 0
0.274115 -0.051449 -0.104111 255 0 0
-0.225058 0.474102 -0.229512 255 0 0
0.048839 -0.260420 0.084117 76 0 153
0.370149 -0.044632 -0.100792 255 0 0
-0.099396 -0.118340 0.552480 76 0 153
0.052125 -0.838448 -0.382512 127 0 127
0.087863 -0.041872 0.439515 76 0 153
-0.301600 -0.061666 -0.036124 76 0 153
0.039219 -0.048556 0.189543 76 0 153
0.449694 -0.169714 -0.007434 204 51 127
-0.185949 -0.063324 -0.113430 76 0 153
0.494587 0.181181 0.143727 204 51 127
-0.368950 0.407458 -0.187896 255 0 0
-0.210091 0.660738 -0.306126 255 0 0
0.401059 -0.083638 0.411756 204 51 127
0.034596 -0.741159 -0.002751 204 51 127
0.091122 -0.047602 0.213731 76 0 153
0.279119 0.498485 -0.341439 255 0 0
-0.449344 0.143256 -0.021309 153 0 76
0.205062 -0.038537 0.301962 76 0 153
0.451007 0.070263 0.382169 204 51 127
-0.303125 -0.097248 -0.209746 255 0 0
0.190032 -0.729949 0.384209 76 0 153
0.401923 0.321156 -0.201155 255 0 0
0.287506 -0.829754 0.435660 153 0 76
-0.215288 0.336297 -0.296262 255 0 0
0.407294 0.030565 -0.130064 255 0 0
-0.199371 -0.198340 0.557211 76 0 153
-0.013927 -0.618895 0.055243 76 0 153
-0.078842 0.127819 -0.156618 255 0 0
-0.315175 -0.724030 0.017191 0 0 255
0.304069 -0.096431 -0.217133 255 0 0
0.170943 -0.026237 -0.155306 255 0 0
-0.130996 -0.053495 -0.032167 76 0 153
0.491860 0.183279 0.045773 204 51 127
-0.166173 -0.088204 0.539828 76 0 153
-0.087676 -0.158376 -0.213378 255 0 0
0.093159 -0.045094 -0.167796 255 0 0
0.034596 -0.750257 -0.281040 204 51 127
-0.307166 0.184962 -0.112524 255 0 0
-0.257905 0.426115 -0.205650 255 0 0
0.379800 0.399061 -0.275960 255 0 0
-0.408180 0.232857 -0.011828 153 0 76
-0.429181 0.238337 -0.153240 153 0 76
0.040918 -0.656683 0.058748 76 0 153
-0.236697 0.310226 -0.277172 255 0 0
0.273645 -0.057162 0.014949 76 0 153
0.477967 0.026964 0.336399 204 51 127
0.282688 -0.161452 -0.181004 255 0 0
0.249150 0.543346 -0.253838 255 0 0
0.334491 0.637858 -0.374834 255 0 0
0.041645 0.078181 -0.165631 255 0 0
-0.484329 0.182064 0.185530 153 0 76
0.448758 -0.774088 -0.045807 0 0 255
0.046068 -0.572066 0.063555 76 0 153
-0.449413 -0.035310 0.146887 153 0 76
0.184186 -0.047317 0.105039 76 0 153
0.457988 0.197072 0.243733 204 51 127
-0.449413 0.063337 -0.039551 153 0 76
0.475720 0.044734 0.392237 204 51 127
-0.273053 0.050170 -0.232423 255 0 0
-0.455867 0.166221 -0.054377 153 0 76
0.113553 -0.059092 -0.055017 76 0 153
0.318188 0.572393 -0.363554 255 0 0
-0.032716 -0.767500 0.124514 76 0 153
-0.233746 0.097001 -0.136748 255 0 0
0.367036 -0.069052 0.031053 76 0 153
0.465252 -0.147073 0.148311 204 51 127
0.298303 -0.052695 0.117237 76 0 153
0.405792 -0.128126 0.443439 204 51 127
0.012156 0.039578 -0.262461 255 0 0
-0.048002 -0.041919 0.346743 76 0 153
-0.218503 0.581207 -0.268959 255 0 0
-0.393553 0.064394 0.073825 153 0 76
-0.441814 -0.149056 0.110678 153 0 76
-0.238252 -0.056013 -0.072269 76 0 153
-0.335941 0.450021 -0.315358 255 0 0
0.205015 -0.717207 0.326237 76 0 153
0.481521 -0.866438 -0.036999 0 255 0
0.315369 -0.045315 0.181011 76 0 153
-0.007819 -0.044125 0.294067 76 0 153
-0.172648 -0.713723 0.315558 255 0 0
0.145151 -0.040469 0.381459 76 0 153
-0.345009 -0.763041 -0.019663 0 0 255
0.183308 0.288658 -0.290155 255 0 0
-0.419577 0.156570 0.288850 153 0 76
-0.383360 0.419890 -0.276905 255 0 0
-0.449340 -0.097071 0.198632 153 0 76
0.472648 -0.017477 0.060228 204 51 127
-0.390941 -0.126074 0.352034 153 0 76
-0.447699 0.235012 0.139196 153 0 76
0.230993 -0.044216 -0.147325 255 0 0
-0.017032 -0.796632 -0.335827 0 127 127
-0.452640 0.183324 0.282996 153 0 76
0.315034 0.530545 -0.243995 255 0 0
-0.429624 -0.122328 -0.136827 153 0 76
0.253791 -0.048935 0.195810 76 0 153
-0.421867 -0.111629 0.423886 153 0 76
0.032151 -0.177944 0.134271 76 0 153
-0.186312 -0.696309 0.019849 0 0 255
0.059424 -0.193662 0.492715 76 0 153
-0.161379 0.103519 -0.255265 255 0 0
-0.361365 0.530283 -0.235274 255 0 0
-0.229667 -0.044693 0.171072 76 0 153
-0.279158 0.002619 -0.230744 255 0 0
0.275098 -0.072504 0.525548 76 0 153
-0.384341 0.284511 -0.150655 255 0 0
0.382914 0.094206 -0.199016 255 0 0
0.472648 0.049820 0.028173 204 51 127
-0.194072 -0.761176 0.378888 255 0 0
0.111715 -0.051507 0.118527 76 0 153
-0.082013 -0.051956 -0.008761 76 0 153
-0.393558 -0.028126 0.041744 153 0 76
0.007555 -0.753896 0.048790 76 0 153
0.356605 -0.118024 0.538586 76 0 153
-0.144874 0.224734 -0.162603 255 0 0
0.470598 0.028787 -0.116574 204 51 127
-0.010917 -0.165933 -0.194428 255 0 0
-0.033119 -0.836881 0.123943 76 0 153
0.161448 0.148816 -0.155838 255 0 0
-0.265275 -0.778098 0.470773 153 0 76
-0.370146 -0.160871 0.495702 76 0 153
0.221017 -0.173965 -0.161200 255 0 0
0.232831 -0.742121 0.003010 153 0 76
0.399769 -0.175632 -0.080434 204 51 127
0.396687 0.469616 -0.237051 255 0 0
-0.106032 0.562801 -0.389586 255 0 0
0.409147 -0.062948 0.032036 204 51 127
0.263800 0.439347 -0.328149 255 0 0
-0.393616 0.373163 -0.235980 255 0 0
-0.447971 -0.092182 0.328791 153 0 76
-0.314788 -0.054933 0.034851 76 0 153
0.151915 -0.744745 0.253172 76 0 153
0.175593 0.529821 -0.268318 255 0 0
0.152899 0.302023 -0.299160 255 0 0
0.408939 -0.056176 -0.134948 255 0 0
-0.083367 0.647235 -0.420983 255 0 0
0.360478 0.622785 -0.283108 255 0 0
0.057816 -0.615038 0.118095 76 0 153
0.217852 0.621983 -0.287914 255 0 0
-0.219602 -0.751370 -0.000278 0 0 255
0.475130 -0.038470 0.357837 204 51 127
0.416111 0.087547 0.056346 204 51 127
-0.108575 -0.039663 0.272840 76 0 153
0.214492 -0.077302 0.521833 76 0 153
-0.434282 -0.849192 -0.086712 153 0 76
0.414049 -0.124688 -0.071386 204 51 127
-0.241135 0.381067 -0.301801 255 0 0
-0.448682 -0.079466 0.290447 153 0 76
0.218221 0.365138 -0.201515 255 0 0
0.184188 0.444411 -0.345173 255 0 0
0.160651 -0.691965 0.060355 153 0 76
0.404139 0.357356 -0.176425 255 0 0
0.242974 -0.045988 0.260429 76 0 153
0.227119 -0.034985 0.382699 76 0 153
0.109036 -0.158447 -0.213355 255 0 0
0.472649 0.067187 -0.079149 204 51 127
-0.178934 -0.044697 0.163640 76 0 153
-0.299200 -0.794225 0.507820 76 0 153
0.417223 0.157288 0.191024 204 51 127
0.363699 0.608971 -0.356049 255 0 0
0.340936 0.662437 -0.308554 255 0 0
-0.204020 -0.763801 0.026101 0 0 255
0.442553 0.110149 -0.165501 204 51 127
-0.202375 0.410810 -0.320219 255 0 0
0.007512 -0.117712 -0.245707 255 0 0
0.381447 0.473278 -0.308746 255 0 0
-0.450113 -0.059176 0.347467 153 0 76
0.020418 -0.047749 -0.144463 255 0 0
0.009500 -0.696649 -0.249243 204 51 127
-0.449413 0.007139 0.191442 153 0 76
0.197676 -0.040176 0.391829 76 0 153
-0.394046 -0.013043 0.332062 153 0 76
-0.128188 -0.765376 0.050715 0 0 255
0.438016 -0.174161 0.074130 204 51 127
-0.391294 -0.124958 0.106157 153 0 76
0.472648 -0.004757 -0.068335 204 51 127
-0.346220 0.214560 -0.218175 255 0 0
0.159680 -0.117909 0.559049 76 0 153
0.230178 -0.716533 0.436973 76 0 153
0.046235 -0.426316 0.077177 76 0 153
-0.099044 -0.763632 0.247972 255 0 0
0.238302 -0.055165 -0.071985 76 0 153
-0.189006 -0.072377 -0.247798 255 0 0
0.407382 0.058507 -0.193972 255 0 0
-0.369583 0.452616 -0.291576 255 0 0
-0.391858 -0.140494 -0.067626 76 0 153
-0.107089 0.133261 -0.256823 255 0 0
0.403588 -0.117783 -0.144805 255 0 0
0.247481 0.176913 -0.140165 255 0 0
-0.248996 0.184039 -0.134648 255 0 0
0.413470 -0.136714 0.271109 204 51 127
-0.010174 -0.396981 0.065419 76 0 153
-0.395098 0.209045 -0.060797 153 0 76
0.472497 -0.048438 0.247460 204 51 127
0.301785 -0.865738 0.456279 153 0 76
-0.142190 0.614538 -0.407813 255 0 0
0.471438 -0.080517 0.305847 204 51 127
-0.268867 0.281686 -0.153390 255 0 0
0.119111 0.381716 -0.325681 255 0 0
0.047225 -0.174100 -0.187353 255 0 0
0.472648 0.079368 0.152935 204 51 127
-0.385854 -0.039083 0.274614 153 0 76
-0.449412 -0.088349 -0.027060 153 0 76
0.373321 0.328333 -0.158460 255 0 0
-0.335882 0.595263 -0.259512 255 0 0
0.444838 0.224933 0.155289 204 51 127
0.368550 0.278082 -0.235291 255 0 0
-0.092666 -0.712827 0.041110 0 0 255
-0.132270 0.383469 -0.213820 255 0 0
0.009064 -0.760338 -0.053398 204 51 127
0.328139 0.201306 -0.222105 255 0 0
-0.010321 0.691019 -0.365925 255 0 0
-0.236163 -0.165797 -0.179414 255 0 0
0.110786 -0.746357 0.196517 76 0 153
-0.272906 0.112464 -0.232454 255 0 0
0.041832 0.677541 -0.339466 255 0 0
0.467408 -0.141924 0.346936 204 51 127
-0.458326 0.011942 0.364955 153 0 76
0.018466 -0.346775 0.137774 76 0 153
0.380516 -0.064304 0.385773 204 51 127
0.493737 0.096435 0.345244 204 51 127
0.112213 -0.697618 0.207539 76 0 153
-0.225649 -0.124206 0.554732 76 0 153
0.286858 0.422648 -0.203781 255 0 0
0.145293 0.434368 -0.238767 255 0 0
0.046650 -0.320108 0.077557 76 0 153
0.104455 -0.048770 0.060126 76 0 153
-0.262772 -0.056822 -0.234117 255 0 0
0.363309 -0.055488 0.472269 76 0 153
0.104445 -0.040400 0.382498 76 0 153
0.174376 0.217836 -0.261358 255 0 0
0.149332 -0.756259 0.057235 153 0 76
0.274707 -0.867540 0.502091 204 51 127
0.104312 -0.185904 0.564200 76 0 153
-0.367490 0.163885 -0.105668 255 0 0
0.402050 0.014855 -0.184828 255 0 0
-0.449412 -0.091740 0.134382 153 0 76
0.058161 -0.577169 0.116713 76 0 153
-0.032398 0.673028 -0.419471 255 0 0
0.303033 0.106420 -0.230556 255 0 0
0.138678 -0.101982 -0.251084 255 0 0
-0.124765 -0.072667 -0.257399 255 0 0
0.294649 0.423987 -0.317625 255 0 0
0.002548 0.060398 -0.165803 255 0 0
-0.231907 0.683234 -0.385072 255 0 0
-0.178841 0.656788 -0.303554 255 0 0
0.112923 0.234739 -0.279707 255 0 0
0.144447 0.548943 -0.387934 255 0 0
0.249815 -0.849815 0.459718 204 51 127
0.498183 0.191358 -0.126966 204 51 127
0.000165 -0.787835 -0.380106 127 127 0
0.279236 0.602192 -0.270305 255 0 0
0.472555 -0.082721 0.134212 204 51 127
-0.449413 0.097176 -0.046920 153 0 76
-0.469890 0.183567 0.100203 153 0 76
0.329848 -0.144394 -0.188093 255 0 0
0.484142 0.192149 0.271378 204 51 127
0.088357 0.046388 -0.260645 255 0 0
-0.041707 0.619718 -0.413847 255 0 0
-0.344318 0.001833 -0.206154 153 0 76
0.204924 -0.040855 -0.128434 255 0 0
-0.398545 0.219204 0.082058 153 0 76
-0.044262 0.063649 -0.164696 255 0 0
0.314785 0.561683 -0.255121 255 0 0
0.504010 0.240917 0.021620 204 51 127
-0.125823 -0.050931 0.139312 76 0 153
-0.142682 -0.737056 0.350257 255 0 0
0.283951 -0.811544 0.522602 204 51 127
0.396337 0.609227 -0.283693 255 0 0
-0.040816 0.618667 -0.311601 255 0 0
0.426660 0.011100 0.378787 204 51 127
0.012266 0.539393 -0.278669 255 0 0
0.059169 -0.040779 0.373314 76 0 153
0.518073 0.221410 -0.018748 204 51 127
0.196462 0.017686 -0.144493 255 0 0
-0.413082 -0.702145 -0.044882 0 0 255
-0.392876 0.016618 0.254671 153 0 76
0.303770 -0.008072 -0.123887 255 0 0
0.248228 -0.166584 0.572233 76 0 153
0.371841 -0.065595 -0.036676 76 0 153
-0.385427 0.054988 -0.095144 153 0 76
0.004573 -0.382962 0.137725 76 0 153
-0.289334 0.441483 -0.211681 255 0 0
-0.437328 0.240902 0.048658 153 0 76
0.514496 0.202180 0.203702 204 51 127
-0.447090 -0.130070 0.223193 153 0 76
0.058045 -0.034987 0.425700 76 0 153
0.402061 0.367611 -0.230045 255 0 0
-0.187658 0.548150 -0.372194 255 0 0
-0.186107 0.662314 -0.397975 255 0 0
0.060310 -0.804721 0.108119 76 0 153
-0.346457 0.327621 -0.158832 255 0 0
0.429306 -0.824588 -0.078559 255 0 0
-0.243083 -0.725271 0.487421 255 0 0
-0.385440 -0.160453 -0.153438 255 0 0
0.465202 -0.113529 0.409792 204 51 127
-0.133798 0.343748 -0.313643 255 0 0
-0.046435 0.413313 -0.238564 255 0 0
-0.384306 -0.158233 0.178690 153 0 76
0.413647 0.160918 -0.156604 255 0 0
0.416111 0.025843 0.216653 204 51 127
0.123759 -0.763995 0.250010 76 0 153
-0.088285 0.316634 -0.200417 255 0 0
0.239128 0.629798 -0.398632 255 0 0
-0.319670 0.678195 -0.353177 255 0 0
0.025682 -0.081163 0.525745 76 0 153
0.282563 0.014696 -0.230216 255 0 0
0.041107 -0.766267 0.058925 76 0 153
0.167489 0.224652 -0.162659 255 0 0
0.365504 -0.042583 -0.206205 255 0 0
-0.303303 -0.149648 0.546893 76 0 153
-0.009947 -0.029872 -0.166810 255 0 0
0.391899 0.152719 -0.119051 255 0 0
-0.181817 0.327475 -0.299894 255 0 0
0.168386 -0.210768 0.520538 76 0 153
0.168178 -0.704045 0.283066 76 0 153
0.076198 0.120545 -0.261605 255 0 0
0.126379 0.264366 -0.283313 255 0 0
-0.378912 -0.080376 0.452201 76 0 153
0.332668 0.239426 -0.126274 255 0 0
-0.311858 0.360789 -0.286586 255 0 0
-0.389584 -0.072221 -0.164766 255 0 0
-0.157107 0.125566 -0.147327 255 0 0
-0.222179 -0.035918 0.362767 76 0 153
0.428294 0.099349 0.320907 204 51 127
0.279006 0.111857 -0.125338 255 0 0
-0.460514 0.129767 0.240614 153 0 76
-0.052082 -0.744320 0.147644 255 0 0
-0.105937 -0.127508 -0.233313 255 0 0
0.472787 0.068795 0.252746 204 51 127
0.309447 -0.045984 0.479903 76 0 153
-0.375888 0.170836 -0.200153 255 0 0
-0.393397 0.178836 -0.050860 153 0 76
-0.288986 -0.058491 0.014582 76 0 153
-0.270380 0.331110 -0.284032 255 0 0
0.263601 -0.061118 -0.232757 255 0 0
-0.391191 -0.130081 0.045297 153 0 76
-0.066952 -0.216799 0.542313 76 0 153
0.159385 0.151546 -0.258851 255 0 0
0.498633 0.236025 0.134578 204 51 127
-0.161493 -0.045502 -0.158103 255 0 0
-0.389322 0.129721 -0.167254 255 0 0
-0.041414 -0.747817 0.210775 255 0 0
-0.451168 0.099038 0.234597 153 0 76
0.331181 0.129668 -0.110288 255 0 0
0.140461 -0.143238 -0.218778 255 0 0
0.017863 -0.259988 0.137924 76 0 153
-0.165687 -0.200833 0.488820 76 0 153
-0.467122 -0.852838 -0.071628 76 0 153
0.312747 -0.709775 0.022285 153 0 76
-0.048388 -0.735345 0.055390 0 0 255
-0.112780 0.445356 -0.347277 255 0 0
-0.243957 0.639576 -0.395549 255 0 0
-0.129525 0.388256 -0.324566 255 0 0
-0.377215 -0.047815 0.301864 153 0 76
-0.139086 0.029175 -0.155638 255 0 0
-0.381178 -0.100050 0.427073 153 0 76
-0.148547 0.407705 -0.225548 255 0 0
0.351516 -0.057955 0.174496 76 0 153
-0.155267 0.469911 -0.246561 255 0 0
0.083499 -0.747266 0.236741 76 0 153
-0.036253 -0.486210 0.111407 76 0 153
0.264312 -0.739254 0.040960 153 0 76
0.074124 0.682541 -0.344900 255 0 0
-0.055764 -0.060408 -0.088740 76 0 153
-0.180416 0.284190 -0.284779 255 0 0
0.312511 0.327686 -0.161092 255 0 0
0.472542 -0.013718 0.122196 204 51 127
0.461430 -0.062591 0.414731 204 51 127
0.019695 0.224647 -0.168490 255 0 0
0.447674 -0.036252 0.417267 204 51 127
0.015165 -0.806535 0.148811 76 0 153
-0.127426 0.653106 -0.316792 255 0 0
-0.133706 -0.714216 0.260036 255 0 0
-0.087603 -0.046465 0.120029 76 0 153
-0.116023 0.415266 -0.227308 255 0 0
0.249700 0.340924 -0.180979 255 0 0
-0.441701 -0.088325 -0.133547 153 0 76
0.404500 -0.094735 0.471778 76 0 153
0.064220 0.009507 -0.159926 255 0 0
-0.076683 0.067073 -0.264668 255 0 0
-0.148801 -0.048652 0.194446 76 0 153
0.472648 -0.062544 0.093046 204 51 127
-0.192107 0.505220 -0.356067 255 0 0
0.061381 -0.037554 0.320392 76 0 153
0.048424 -0.624159 0.065754 76 0 153
-0.113894 0.691608 -0.396376 255 0 0
-0.011361 -0.748029 -0.332373 204 51 127
0.414675 -0.135365 0.166166 204 51 127
0.197113 0.669678 -0.318690 255 0 0
-0.339072 -0.067709 0.013229 76 0 153
0.043491 0.274969 -0.185106 255 0 0
0.359962 0.025584 -0.113802 255 0 0
-0.008024 -0.708178 -0.198468 204 51 127
-0.011361 -0.739161 0.012259 204 51 127
-0.388253 -0.117014 0.007394 153 0 76
0.058227 -0.039410 0.280484 76 0 153
-0.154774 0.676263 -0.318279 255 0 0
-0.319234 -0.177682 0.516236 76 0 153
0.306629 -0.035422 0.395728 76 0 153
0.386133 -0.054442 0.275961 76 0 153
0.011104 -0.686087 0.008494 204 51 127
0.390775 0.307481 -0.146143 255 0 0
-0.173125 0.616512 -0.295533 255 0 0
0.019765 -0.696717 -0.190896 204 51 127
0.260994 -0.699932 0.035684 153 0 76
-0.187176 -0.042728 0.446588 76 0 153
-0.447612 -0.115582 0.284265 153 0 76
0.216510 -0.699115 0.015011 153 0 76
0.472557 0.145201 -0.071893 204 51 127
0.103048 0.308653 -0.198476 255 0 0
-0.204885 -0.753173 0.436025 255 0 0
-0.398573 -0.022393 0.377435 153 0 76
-0.094348 -0.179693 0.572306 76 0 153
-0.449413 -0.019536 0.217125 153 0 76
-0.029404 0.089320 -0.267614 255 0 0
-0.022649 -0.205921 0.120538 76 0 153
0.259405 -0.027191 -0.241201 255 0 0
0.416143 -0.031659 -0.039985 204 51 127
0.319071 -0.753430 0.023069 153 0 76
-0.316373 0.641772 -0.373968 255 0 0
0.015940 0.565492 -0.401217 255 0 0
0.152915 0.389938 -0.216728 255 0 0
-0.106937 -0.700905 0.292879 255 0 0
0.051723 -0.369135 0.095656 76 0 153
-0.249084 -0.750511 -0.009856 0 0 255
0.274639 0.291635 -0.273320 255 0 0
0.022330 -0.709860 -0.365025 204 51 127
-0.066025 -0.033293 -0.165005 255 0 0
0.407689 -0.034131 -0.096526 204 51 127
0.003179 0.595381 -0.298467 255 0 0
0.134751 0.079801 -0.159044 255 0 0
-0.127679 0.084246 -0.259619 255 0 0
-0.449047 -0.104753 0.165499 153 0 76
0.390906 -0.056124 0.176803 204 51 127
0.101580 0.261449 -0.176429 255 0 0
0.078035 -0.173021 0.572293 76 0 153
0.391501 -0.701912 -0.012786 153 0 76
0.057956 0.384708 -0.331488 255 0 0
-0.387103 -0.037030 0.234494 153 0 76
0.403844 -0.066934 0.003414 204 51 127
-0.449413 0.049162 0.076887 153 0 76
-0.120206 0.257602 -0.279572 255 0 0
0.238264 -0.207876 0.494233 76 0 153
-0.162961 -0.706963 0.371867 255 0 0
-0.089438 -0.038128 0.307857 76 0 153
-0.374063 -0.092019 -0.025409 76 0 153
0.001893 -0.513889 0.147267 76 0 153
-0.270998 0.473485 -0.335449 255 0 0
0.069356 0.249386 -0.283426 255 0 0
0.029488 -0.755054 -0.397082 204 51 127
0.296501 -0.177752 -0.140646 255 0 0
-0.278802 -0.042248 0.437175 76 0 153
0.416111 0.067063 0.226897 204 51 127
-0.278418 -0.166476 -0.167502 255 0 0
0.163833 -0.179847 0.566436 76 0 153
0.308991 -0.165262 0.563715 76 0 153
0.180626 -0.044512 0.163885 76 0 153
-0.449413 0.038794 0.226246 153 0 76
-0.027339 -0.055768 -0.101692 255 0 0
0.285520 -0.054549 0.075800 76 0 153
-0.017851 -0.497936 0.058906 76 0 153
0.369881 -0.755934 -0.041584 153 0 76
-0.392876 0.076893 0.227541 153 0 76
-0.028424 -0.349660 0.101870 76 0 153
-0.203082 -0.123570 -0.221758 255 0 0
0.022946 -0.054479 -0.074267 76 0 153
-0.267537 0.371789 -0.189761 255 0 0
0.472648 0.052422 -0.032325 204 51 127
-0.028286 -0.056080 0.012121 76 0 153
0.075368 -0.127954 0.556322 76 0 153
0.438660 0.017912 -0.168104 204 51 127
0.472546 0.030417 0.069435 204 51 127
-0.390568 -0.115086 0.288469 153 0 76
-0.334499 0.118825 -0.209530 255 0 0
0.176293 -0.172290 -0.171327 255 0 0
-0.009672 -0.193682 0.569340 76 0 153
-0.448377 -0.032961 0.311358 153 0 76
0.031062 -0.714614 0.144837 76 0 153
-0.184613 -0.057702 -0.010194 76 0 153
-0.386959 -0.159719 -0.006126 153 0 76
-0.169564 -0.039518 0.278858 76 0 153
0.266656 0.567449 -0.368639 255 0 0
-0.130721 0.150948 -0.259350 255 0 0
-0.137983 -0.041531 0.436645 76 0 153
0.294145 0.552882 -0.364752 255 0 0
0.220293 -0.032250 -0.243237 255 0 0
0.169325 0.349621 -0.308388 255 0 0
-0.106561 -0.194936 0.485270 76 0 153
-0.268200 -0.719617 0.447414 255 0 0
0.310860 -0.072404 0.523631 76 0 153
0.367335 0.322110 -0.260720 255 0 0
-0.337519 -0.151828 0.538817 76 0 153
0.319452 -0.765668 0.498440 76 0 153
0.263671 0.067426 -0.134997 255 0 0
0.405404 -0.097071 0.191431 204 51 127
-0.390126 0.309236 -0.170599 255 0 0
-0.448361 -0.118988 -0.026108 153 0 76
0.292551 0.372081 -0.183721 255 0 0
