ply
format ascii 1.0
element vertex 1276
property float x
property float y
property float z
property uchar red
property uchar green
property uchar blue
end_header
0.182165 -0.696699 0.317849 76 0 153
-0.113152 0.694752 -0.348992 255 0 0
-0.021674 0.613153 -0.415199 255 0 0
0.289551 0.356539 -0.291036 255 0 0
-0.487943 0.229761 0.137408 153 0 76
0.258610 0.378878 -0.304521 255 0 0
0.423027 0.199326 0.188259 204 51 127
0.040316 0.516701 -0.381208 255 0 0
0.418849 0.119795 -0.077402 204 51 127
0.418849 0.087642 -0.014817 204 51 127
0.033333 -0.202213 0.133089 76 0 153
-0.429490 -0.026222 0.414998 153 0 76
0.345716 -0.055842 0.092735 76 0 153
-0.270021 -0.738017 0.031526 0 0 255
-0.012271 -0.593745 0.143726 76 0 153
0.414303 -0.153568 0.102944 204 51 127
0.286327 -0.773659 0.492821 76 0 153
0.393465 -0.118354 0.504431 76 0 153
-0.398796 -0.099719 0.336266 153 0 76
-0.411938 -0.758893 -0.014801 0 0 255
0.416925 -0.763078 -0.029909 153 0 76
-0.395614 0.007327 -0.004690 153 0 76
-0.105320 -0.049631 0.102725 76 0 153
-0.203687 -0.718339 0.356403 255 0 0
0.390745 0.424392 -0.194735 255 0 0
0.434294 -0.172963 0.082331 204 51 127
-0.395614 -0.052307 0.151793 153 0 76
0.469912 0.020660 0.086966 204 51 127
0.469912 0.028443 0.176464 204 51 127
-0.187768 -0.117828 -0.231715 255 0 0
-0.217321 -0.048921 0.133125 76 0 153
-0.395614 -0.023816 -0.123171 255 0 0
-0.446677 0.129391 0.110021 153 0 76
-0.444608 -0.095357 -0.115527 153 0 76
-0.446677 0.028337 0.151135 153 0 76
0.418849 0.126157 -0.145808 255 0 0
0.364139 -0.059618 0.156349 76 0 153
0.038870 0.078471 -0.163065 255 0 0
-0.044423 -0.069152 -0.174446 255 0 0
0.378177 0.006902 -0.106896 255 0 0
0.463970 -0.810090 -0.035979 0 0 255
-0.446677 0.170653 -0.044504 153 0 76
-0.376962 0.622957 -0.305502 255 0 0
-0.238298 0.360713 -0.297408 255 0 0
-0.449436 0.133167 0.241601 153 0 76
-0.229101 -0.050437 0.101575 76 0 153
0.256820 -0.747948 0.475535 76 0 153
0.087943 -0.057361 -0.080789 76 0 153
0.418849 0.185073 -0.088425 204 51 127
-0.379209 0.543635 -0.254959 255 0 0
0.304734 -0.044746 0.229485 76 0 153
-0.241136 0.452686 -0.329778 255 0 0
0.394754 0.505011 -0.320203 255 0 0
-0.395614 0.065841 -0.009282 153 0 76
0.003341 -0.338287 0.137417 76 0 153
0.418849 0.138905 -0.161476 255 0 0
-0.215861 -0.040262 0.327903 76 0 153
0.031480 -0.073583 0.525343 76 0 153
-0.182764 0.690627 -0.387675 255 0 0
0.265685 -0.869536 0.480848 204 51 127
0.050519 -0.535996 0.067710 76 0 153
-0.395614 0.065515 -0.085580 153 0 76
0.058491 -0.551678 0.115394 76 0 153
0.406492 -0.159668 0.322010 204 51 127
0.468824 0.082846 -0.122193 204 51 127
-0.043817 -0.046590 0.172095 76 0 153
0.032415 -0.711157 -0.197817 204 51 127
0.042932 -0.043015 0.468020 76 0 153
0.324192 -0.051320 0.106587 76 0 153
0.184652 0.200681 -0.257017 255 0 0
-0.197775 -0.701790 0.050172 0 0 255
0.249368 -0.706259 0.397395 76 0 153
0.059703 -0.633395 0.110546 76 0 153
0.130038 -0.052425 0.037439 76 0 153
-0.346410 0.253913 -0.120596 255 0 0
0.144525 0.169021 -0.155540 255 0 0
0.403254 0.125413 -0.121180 255 0 0
-0.446677 0.169981 0.025587 153 0 76
0.167278 -0.053610 0.015432 76 0 153
-0.387450 0.377072 -0.193787 255 0 0
-0.128704 0.659218 -0.415076 255 0 0
-0.179339 0.068437 -0.249422 255 0 0
0.130973 -0.128418 -0.237627 255 0 0
-0.112658 -0.201262 0.489071 76 0 153
0.174285 -0.059092 -0.111473 255 0 0
0.469912 0.113028 -0.020395 204 51 127
0.002559 -0.059676 -0.138269 255 0 0
-0.395614 0.022305 0.211854 153 0 76
-0.395614 0.103423 -0.152623 255 0 0
0.115194 -0.694265 0.215875 76 0 153
-0.171608 0.032013 -0.147101 255 0 0
-0.241906 0.572310 -0.372482 255 0 0
0.276587 -0.735656 0.036960 153 0 76
0.220019 -0.058455 -0.089365 76 0 153
-0.438038 -0.040368 0.324434 153 0 76
-0.009887 -0.710500 -0.133108 204 51 127
0.101410 -0.055767 -0.042075 76 0 153
-0.177317 0.700110 -0.357164 255 0 0
-0.495783 0.219103 -0.093717 153 0 76
-0.395614 0.042178 0.257857 153 0 76
-0.066934 0.386276 -0.332954 255 0 0
0.234775 -0.057919 -0.073404 76 0 153
0.007086 -0.041245 0.457147 76 0 153
-0.378395 -0.127415 -0.174978 255 0 0
0.439932 0.043776 0.385947 204 51 127
0.222026 0.200636 -0.249401 255 0 0
-0.360300 0.281045 -0.131561 255 0 0
-0.184662 -0.060868 -0.132216 255 0 0
-0.296092 0.012743 -0.116242 255 0 0
-0.240168 -0.108776 -0.226139 255 0 0
-0.243112 0.218399 -0.137853 255 0 0
0.468220 -0.133003 0.207109 204 51 127
-0.409390 -0.175710 0.016620 153 0 76
0.038174 0.019707 -0.163065 255 0 0
0.370762 0.270867 -0.126682 255 0 0
-0.270179 -0.796884 0.492112 153 0 76
0.419474 0.125515 0.260911 204 51 127
0.514870 0.194007 0.186408 204 51 127
-0.221525 -0.184326 0.483143 76 0 153
0.221874 -0.133203 -0.221932 255 0 0
0.044594 -0.732587 0.135871 76 0 153
0.360024 0.413752 -0.297762 255 0 0
-0.130355 0.611913 -0.406819 255 0 0
-0.492269 0.230483 -0.008850 153 0 76
0.060832 -0.687634 0.156148 76 0 153
-0.395614 0.180711 -0.138102 255 0 0
0.375189 0.318062 -0.145599 255 0 0
0.410047 0.352888 -0.242494 255 0 0
0.234925 -0.172434 -0.164902 255 0 0
0.482724 0.067727 0.326772 204 51 127
0.216698 -0.041061 0.456016 76 0 153
0.415746 0.382841 -0.238888 255 0 0
0.418849 0.046597 -0.108168 255 0 0
0.418849 -0.072554 0.361338 204 51 127
0.418234 -0.137957 -0.049985 204 51 127
-0.273399 -0.049575 0.123500 76 0 153
-0.392376 0.399186 -0.246523 255 0 0
0.451834 -0.165418 -0.000997 204 51 127
-0.222366 -0.065606 -0.240215 255 0 0
0.492711 -0.756698 -0.050598 153 0 76
0.330658 -0.056940 -0.006672 76 0 153
-0.169711 -0.160277 0.569116 76 0 153
-0.433144 -0.156293 0.235268 153 0 76
-0.074874 -0.060000 0.503491 76 0 153
0.059891 -0.826520 -0.347354 127 0 127
-0.394956 -0.119764 0.416282 153 0 76
0.418849 0.014671 0.171241 204 51 127
-0.112487 -0.694788 0.248199 255 0 0
-0.396764 -0.043804 0.326259 153 0 76
-0.401686 0.189880 0.120910 153 0 76
-0.395614 -0.130499 0.130682 153 0 76
-0.044883 -0.159942 -0.212443 255 0 0
-0.053437 -0.137972 -0.235700 255 0 0
0.472938 0.188058 0.072280 204 51 127
-0.301379 0.584792 -0.370874 255 0 0
-0.059370 -0.748589 0.201144 255 0 0
-0.139034 0.438012 -0.235443 255 0 0
0.154513 0.242026 -0.166949 255 0 0
0.451134 0.070755 -0.157053 204 51 127
0.420037 0.172215 0.208646 204 51 127
-0.446677 -0.025294 0.162511 153 0 76
0.104823 -0.037667 0.382298 76 0 153
-0.305026 -0.044885 0.263715 76 0 153
-0.014888 -0.463641 0.128299 76 0 153
0.009064 -0.754561 -0.141272 204 51 127
0.114545 0.489221 -0.367048 255 0 0
0.414331 0.096472 -0.174982 255 0 0
0.123116 0.123937 -0.259745 255 0 0
-0.114254 0.555759 -0.280011 255 0 0
-0.396714 0.203863 -0.171769 255 0 0
0.034145 -0.737519 0.054330 76 0 153
0.271802 0.545062 -0.361342 255 0 0
0.222073 -0.726092 0.349502 76 0 153
0.306864 -0.030932 -0.119898 255 0 0
0.009064 -0.750848 0.038813 76 0 153
-0.372045 -0.070687 0.379839 153 0 76
0.146895 0.553693 -0.278334 255 0 0
-0.210146 -0.054008 0.015386 76 0 153
0.075448 0.367900 -0.327763 255 0 0
-0.098093 -0.715325 0.289320 255 0 0
-0.395614 -0.141180 -0.049432 76 0 153
-0.020656 0.661139 -0.324658 255 0 0
0.101748 0.551005 -0.281756 255 0 0
-0.412887 0.151989 0.193370 153 0 76
-0.079052 0.084646 -0.159349 255 0 0
-0.003749 -0.829876 0.052181 76 0 153
0.107640 0.618127 -0.412971 255 0 0
0.405285 -0.167609 0.195346 204 51 127
0.208322 -0.045658 0.201236 76 0 153
0.283952 0.080808 -0.233310 255 0 0
-0.164907 -0.057812 -0.079177 76 0 153
0.469912 0.105499 0.147280 204 51 127
-0.395614 -0.068064 0.221154 76 0 153
0.129564 -0.040184 0.323472 76 0 153
-0.083229 0.397663 -0.335551 255 0 0
-0.357130 0.430819 -0.193478 255 0 0
-0.090949 0.203131 -0.160988 255 0 0
-0.320098 0.376231 -0.173680 255 0 0
-0.395614 0.083280 -0.173070 255 0 0
-0.374686 -0.176507 -0.097968 153 0 76
0.418849 -0.099840 0.281675 204 51 127
0.079728 0.503773 -0.375171 255 0 0
0.034596 -0.729319 -0.128763 204 51 127
-0.021572 -0.218831 0.517774 76 0 153
0.012784 0.514257 -0.272581 255 0 0
-0.436873 -0.156003 0.057349 153 0 76
-0.446677 0.050650 -0.044083 153 0 76
0.459191 -0.153824 0.217246 204 51 127
0.477244 0.239238 0.079083 204 51 127
-0.215865 -0.842167 0.502176 153 76 0
0.388488 -0.077276 -0.055222 204 51 127
0.418849 -0.002320 0.282356 204 51 127
-0.130449 0.445226 -0.347472 255 0 0
-0.446677 0.049731 0.240667 153 0 76
0.058891 -0.664680 0.083475 76 0 153
0.162517 -0.752185 0.345637 76 0 153
0.418849 -0.040695 -0.083814 204 51 127
-0.316690 -0.045251 0.296176 76 0 153
0.450792 0.172070 -0.145554 204 51 127
-0.031901 -0.053278 0.013120 76 0 153
0.330522 0.494253 -0.225936 255 0 0
-0.031939 0.210031 -0.167311 255 0 0
-0.385750 0.228057 -0.195501 255 0 0
-0.215533 0.298318 -0.279754 255 0 0
0.171080 -0.694948 0.064010 153 0 76
0.469912 -0.013281 0.096838 204 51 127
-0.281997 0.147163 -0.120377 255 0 0
-0.404010 0.193335 0.053571 153 0 76
-0.262350 -0.706977 -0.009506 0 0 255
-0.446677 -0.121596 0.248520 153 0 76
-0.446677 -0.009503 0.109900 153 0 76
0.208888 0.267907 -0.275031 255 0 0
0.130856 -0.725816 0.036170 153 0 76
0.354970 -0.170890 0.538298 76 0 153
-0.446677 -0.015229 -0.070128 153 0 76
-0.305645 0.202183 -0.223613 255 0 0
-0.435359 -0.150069 -0.089556 153 0 76
-0.445328 0.098422 -0.123109 153 0 76
-0.093599 0.585318 -0.292481 255 0 0
-0.102169 -0.042679 0.465959 76 0 153
-0.395614 -0.005066 0.092732 153 0 76
-0.250865 -0.723713 0.038051 0 0 255
0.237539 -0.106869 0.550580 76 0 153
0.166623 0.672061 -0.407682 255 0 0
-0.391161 0.451515 -0.272837 255 0 0
0.238774 0.263504 -0.267278 255 0 0
-0.175332 -0.068851 0.517730 76 0 153
-0.006861 -0.560237 0.145079 76 0 153
-0.446677 0.053784 0.134985 153 0 76
0.419054 0.036579 0.303942 204 51 127
-0.165571 0.176838 -0.148711 255 0 0
0.345254 0.484849 -0.329578 255 0 0
0.418849 0.078445 0.120730 204 51 127
0.277470 0.051447 -0.234984 255 0 0
-0.385444 0.518377 -0.251614 255 0 0
0.469912 -0.104024 -0.040369 204 51 127
-0.292342 0.289827 -0.146494 255 0 0
-0.022076 0.630104 -0.421172 255 0 0
0.349299 0.222932 -0.113442 255 0 0
0.469912 0.133011 -0.052544 204 51 127
0.482142 0.022808 0.366000 204 51 127
0.182263 0.415491 -0.223777 255 0 0
0.390380 0.611672 -0.281181 255 0 0
-0.302440 -0.758537 -0.005846 0 0 255
0.053920 0.685732 -0.408798 255 0 0
-0.424913 0.054497 0.289665 153 0 76
0.094175 -0.134023 -0.238288 255 0 0
-0.034701 0.126418 -0.265192 255 0 0
0.469912 0.075978 -0.027264 204 51 127
0.418849 0.178232 0.005351 204 51 127
0.136451 -0.045195 0.206785 76 0 153
-0.466360 -0.748062 -0.056470 0 0 255
-0.239285 0.693497 -0.323116 255 0 0
-0.143828 -0.215501 0.543213 76 0 153
0.418849 0.117894 0.106739 204 51 127
-0.242083 0.435560 -0.323445 255 0 0
-0.252957 -0.720035 0.425365 255 0 0
0.112953 0.458657 -0.356438 255 0 0
-0.370154 0.558671 -0.250972 255 0 0
-0.155368 -0.730847 0.368335 255 0 0
-0.305669 0.620679 -0.383139 255 0 0
-0.395614 0.022577 -0.071430 153 0 76
-0.410711 -0.121061 -0.148933 153 0 76
0.024991 -0.701356 -0.259033 204 51 127
0.031173 -0.105955 0.549901 76 0 153
0.404401 0.327094 -0.165127 255 0 0
0.205169 0.212073 -0.149761 255 0 0
-0.065399 -0.122213 0.560264 76 0 153
0.202694 -0.042944 0.263078 76 0 153
0.469912 0.164487 0.059958 204 51 127
0.442566 -0.704575 -0.028145 153 0 76
0.469912 0.043697 -0.084615 204 51 127
-0.448967 -0.058083 0.375252 153 0 76
-0.025906 -0.667179 0.066423 76 0 153
-0.072953 -0.059063 -0.120380 255 0 0
0.232866 -0.748501 0.364723 76 0 153
0.504496 0.137319 0.304276 204 51 127
0.469912 -0.025954 -0.039611 204 51 127
0.418849 0.159541 -0.152570 255 0 0
0.172172 0.200192 -0.153928 255 0 0
0.269207 0.431543 -0.212034 255 0 0
-0.454956 0.002670 0.371088 153 0 76
0.055631 -0.712576 0.060592 153 0 76
-0.293812 -0.761495 0.482678 255 0 0
0.418260 -0.129112 0.162399 204 51 127
-0.322938 0.620078 -0.377587 255 0 0
0.469912 0.107420 0.040055 204 51 127
-0.223317 -0.757145 0.025574 0 0 255
-0.445404 0.189033 0.044316 153 0 76
0.208042 -0.218917 0.519490 76 0 153
-0.023793 0.040024 -0.265192 255 0 0
0.270729 0.282228 -0.157286 255 0 0
-0.279134 0.215475 -0.235115 255 0 0
-0.184849 -0.208928 0.555703 76 0 153
-0.077635 -0.721570 0.261054 255 0 0
-0.324268 0.681384 -0.332653 255 0 0
0.128317 -0.049376 -0.158661 255 0 0
0.103904 -0.049944 0.095400 76 0 153
0.259600 0.366217 -0.190235 255 0 0
0.186952 0.221953 -0.155007 255 0 0
0.034259 -0.710010 -0.043809 204 51 127
0.418849 0.018562 0.015735 204 51 127
-0.398510 -0.849238 -0.060013 153 0 76
0.198440 -0.750770 0.395119 76 0 153
-0.011361 -0.726556 -0.276637 204 51 127
0.034596 -0.732786 -0.209930 204 51 127
0.219164 0.272473 -0.164697 255 0 0
0.293814 -0.734979 -0.016794 153 0 76
-0.446677 -0.072270 -0.062227 153 0 76
0.185670 -0.057237 -0.066175 76 0 153
-0.448132 0.041457 0.321757 153 0 76
0.418849 -0.124094 0.204664 204 51 127
-0.249975 -0.048178 0.154149 76 0 153
-0.395614 0.059867 0.198578 153 0 76
-0.297929 0.402053 -0.191276 255 0 0
0.152644 0.218626 -0.266873 255 0 0
-0.448584 -0.867556 -0.027068 76 0 153
0.105590 0.211163 -0.163291 255 0 0
-0.006377 -0.428496 0.134987 76 0 153
0.226804 -0.729481 0.435005 76 0 153
-0.264444 0.313048 -0.164792 255 0 0
-0.092460 0.379012 -0.219338 255 0 0
0.055508 0.007602 -0.163065 255 0 0
0.230300 0.240451 -0.151436 255 0 0
0.305274 0.213352 -0.233595 255 0 0
0.090022 -0.185093 0.571619 76 0 153
0.469912 -0.094880 0.196274 204 51 127
0.178125 -0.055952 0.496979 76 0 153
-0.086903 0.507719 -0.265609 255 0 0
0.165394 -0.037220 0.393526 76 0 153
0.415287 -0.115448 -0.023500 204 51 127
0.418849 -0.054204 0.168590 204 51 127
-0.011361 -0.742634 -0.182829 204 51 127
0.043229 -0.819034 0.137236 76 0 153
0.281080 -0.776526 0.474039 76 0 153
0.343604 0.160705 -0.109121 255 0 0
-0.045588 -0.706289 0.104195 0 0 255
-0.243865 -0.793014 0.488901 153 0 76
0.080461 -0.054778 -0.020348 76 0 153
0.055095 -0.764831 0.155416 76 0 153
-0.142135 -0.176656 -0.168391 255 0 0
0.004903 0.188856 -0.164041 255 0 0
-0.163603 0.206648 -0.152293 255 0 0
0.307353 -0.087098 0.534553 76 0 153
-0.365074 -0.067233 0.269662 76 0 153
-0.395614 -0.072884 -0.061520 153 0 76
0.313297 -0.101659 0.543438 76 0 153
0.419466 0.219194 -0.109040 204 51 127
0.280718 -0.720793 -0.012164 153 0 76
0.418849 -0.069982 0.317656 204 51 127
-0.395614 -0.006029 -0.055868 153 0 76
-0.425377 0.084029 0.270545 153 0 76
-0.364208 0.298396 -0.141379 255 0 0
-0.224594 -0.722758 0.385142 255 0 0
0.034596 -0.718485 -0.238030 204 51 127
-0.395825 -0.030898 0.341122 153 0 76
-0.393744 0.230003 -0.158063 255 0 0
0.236534 -0.059480 -0.108528 255 0 0
0.337763 -0.756042 0.016966 153 0 76
0.437570 0.139147 0.296592 204 51 127
0.316491 0.012379 -0.117074 255 0 0
-0.260028 -0.037604 -0.126821 255 0 0
-0.345220 0.486293 -0.324863 255 0 0
0.001005 -0.730696 -0.389638 204 51 127
0.315341 0.129119 -0.224123 255 0 0
-0.274321 0.253505 -0.137438 255 0 0
0.139546 -0.743087 0.313935 76 0 153
0.282012 0.351441 -0.181538 255 0 0
-0.011361 -0.724599 -0.018221 204 51 127
-0.487808 -0.826102 -0.061926 76 0 153
-0.053270 0.137438 -0.264132 255 0 0
-0.033651 -0.042057 0.278435 76 0 153
0.269347 -0.129194 0.561888 76 0 153
0.025629 -0.605982 0.146196 76 0 153
0.165305 0.185574 -0.257396 255 0 0
0.199098 -0.109393 0.552455 76 0 153
0.243474 -0.159021 0.568824 76 0 153
-0.446677 -0.051023 -0.060779 153 0 76
0.187539 0.462853 -0.348362 255 0 0
-0.337770 0.250197 -0.230499 255 0 0
-0.145727 0.507357 -0.367565 255 0 0
0.416946 0.443017 -0.246444 255 0 0
-0.404731 0.190080 -0.020016 153 0 76
0.033810 -0.234336 0.132612 76 0 153
-0.158694 0.010187 -0.253402 255 0 0
-0.395614 0.112454 -0.115534 153 0 76
-0.423692 0.157041 0.291896 153 0 76
0.414991 0.412546 -0.221383 255 0 0
0.317459 0.302869 -0.265485 255 0 0
-0.161023 0.262732 -0.278234 255 0 0
0.438727 0.081160 -0.166613 204 51 127
-0.425961 -0.059376 0.418549 153 0 76
0.340762 0.197177 -0.219243 255 0 0
-0.363478 0.021578 -0.110152 255 0 0
0.489224 0.056510 0.370412 204 51 127
0.367397 -0.050940 0.400673 76 0 153
-0.395614 -0.131728 0.097836 153 0 76
0.436201 0.166848 0.166163 204 51 127
0.425950 -0.174015 0.117392 204 51 127
0.418849 -0.075849 0.201388 204 51 127
-0.448472 0.019584 0.330978 153 0 76
0.166650 0.141119 -0.152740 255 0 0
0.034596 -0.744384 -0.037729 204 51 127
-0.395795 -0.866229 -0.052944 153 0 76
-0.475155 0.173164 0.195617 153 0 76
-0.393813 -0.111670 0.155858 153 0 76
0.312286 0.058333 -0.225017 255 0 0
0.091455 0.083465 -0.262725 255 0 0
-0.438311 0.179779 0.129497 153 0 76
0.418849 0.047810 -0.007504 204 51 127
-0.446677 0.039556 0.105746 153 0 76
-0.181489 0.420743 -0.221537 255 0 0
0.418849 -0.038978 0.292856 204 51 127
0.076031 0.601336 -0.409796 255 0 0
-0.265480 -0.116068 -0.216713 255 0 0
0.032071 -0.873187 -0.381843 127 0 127
0.036995 -0.701057 0.055185 76 0 153
0.236872 -0.039453 0.345651 76 0 153
0.419296 -0.060207 0.386526 204 51 127
0.431621 0.190078 -0.109938 204 51 127
0.084012 -0.694223 0.169586 76 0 153
0.422611 0.071972 0.323076 204 51 127
-0.105018 0.064132 -0.156988 255 0 0
0.366396 0.037182 -0.106896 255 0 0
0.469912 0.088555 0.100772 204 51 127
-0.269832 0.362849 -0.183760 255 0 0
0.421539 -0.085457 0.404151 204 51 127
0.469912 -0.027362 0.287333 204 51 127
-0.446677 0.172332 -0.062143 153 0 76
-0.276342 0.558839 -0.363541 255 0 0
0.317708 -0.049607 0.136690 76 0 153
0.219778 -0.200483 0.488799 76 0 153
0.439475 0.018139 0.402385 204 51 127
0.212043 -0.055396 -0.020688 76 0 153
0.134593 -0.218595 0.513055 76 0 153
-0.126263 -0.063056 -0.163447 255 0 0
-0.152445 -0.061804 -0.158735 255 0 0
-0.325560 -0.060263 -0.115500 255 0 0
-0.036900 -0.679154 0.088451 76 0 153
0.181471 0.152281 -0.149775 255 0 0
0.002938 -0.219682 0.534786 76 0 153
-0.012995 0.201599 -0.270563 255 0 0
0.038402 -0.039376 0.341450 76 0 153
0.263704 0.109379 -0.237638 255 0 0
-0.356663 0.177634 -0.107608 255 0 0
-0.314651 -0.809013 0.470258 76 0 153
-0.383624 0.599303 -0.317076 255 0 0
-0.120254 -0.039163 0.348949 76 0 153
0.329814 0.092555 -0.219887 255 0 0
0.329827 0.578544 -0.367815 255 0 0
-0.374269 0.082945 -0.117346 255 0 0
-0.308106 0.446755 -0.317775 255 0 0
0.075527 -0.701424 0.099775 153 0 76
0.427929 0.091608 0.272004 204 51 127
0.367221 -0.007831 -0.208939 255 0 0
-0.236505 -0.841215 0.446246 153 76 0
-0.398847 0.018446 0.348840 153 0 76
0.099249 -0.720842 0.094806 153 0 76
0.283313 0.017141 -0.126806 255 0 0
0.162753 -0.177442 0.480734 76 0 153
0.112828 0.684527 -0.404926 255 0 0
-0.041989 0.034156 -0.265192 255 0 0
-0.435638 -0.156444 0.098435 153 0 76
-0.352017 0.072128 -0.206588 255 0 0
-0.395614 -0.079589 0.098643 153 0 76
-0.446677 0.101562 -0.031337 153 0 76
0.435018 -0.134736 0.322123 204 51 127
0.077336 -0.040473 0.452407 76 0 153
-0.446677 -0.056027 0.006599 153 0 76
-0.062603 -0.045039 0.210019 76 0 153
0.053311 -0.055543 -0.040532 76 0 153
-0.133716 0.175451 -0.257150 255 0 0
0.303591 -0.124554 0.558443 76 0 153
-0.347815 -0.056551 0.312524 76 0 153
-0.175374 0.393862 -0.321907 255 0 0
0.003332 -0.329930 0.060373 76 0 153
0.418849 -0.002623 -0.031691 204 51 127
0.418849 0.126139 -0.051263 204 51 127
-0.087516 -0.098139 -0.254574 255 0 0
0.013556 -0.044037 0.231297 76 0 153
-0.228100 0.563635 -0.263717 255 0 0
-0.402084 0.001777 0.372120 153 0 76
-0.011361 -0.727124 0.017546 204 51 127
-0.446677 -0.051250 0.216544 153 0 76
-0.342351 -0.050754 0.434976 76 0 153
-0.349305 0.605906 -0.367019 255 0 0
0.062158 -0.054079 -0.005265 76 0 153
0.418646 -0.126360 -0.005421 204 51 127
-0.430526 -0.159305 0.376531 153 0 76
-0.249539 0.592568 -0.378164 255 0 0
-0.281697 -0.041356 0.303882 76 0 153
-0.021222 -0.740924 0.062052 76 0 153
0.460627 0.144553 0.326045 204 51 127
-0.053530 -0.051830 0.049027 76 0 153
-0.351859 -0.080308 -0.203271 255 0 0
-0.306799 0.562621 -0.360940 255 0 0
0.169062 -0.040786 0.312257 76 0 153
-0.093218 -0.179170 0.481339 76 0 153
-0.407050 0.093992 0.268199 153 0 76
-0.110649 -0.113859 -0.244633 255 0 0
0.276334 -0.043121 0.265156 76 0 153
0.323518 0.619428 -0.384635 255 0 0
0.324629 -0.065743 -0.116844 76 0 153
0.350615 -0.703832 -0.028034 153 0 76
-0.203831 0.259904 -0.268407 255 0 0
0.306470 0.691731 -0.336131 255 0 0
-0.194771 0.513331 -0.252034 255 0 0
-0.323017 0.327814 -0.266823 255 0 0
-0.259636 0.021697 -0.233626 255 0 0
0.148854 -0.036543 0.428267 76 0 153
-0.266793 -0.742551 0.443441 255 0 0
0.028720 -0.697209 -0.085250 204 51 127
0.229034 0.680674 -0.315014 255 0 0
-0.183293 -0.733383 0.328294 255 0 0
-0.395614 0.062486 -0.046344 153 0 76
-0.032487 -0.219255 0.536081 76 0 153
-0.150429 0.240401 -0.272319 255 0 0
-0.447734 0.229373 0.161288 153 0 76
-0.440246 -0.124517 -0.112518 153 0 76
-0.395614 0.048317 0.085228 153 0 76
0.118861 0.035373 -0.157842 255 0 0
-0.386359 -0.839385 -0.030630 153 0 76
0.418849 0.088813 -0.090019 204 51 127
-0.029094 -0.485234 0.124334 76 0 153
0.483947 0.186743 0.280490 204 51 127
-0.261474 0.672661 -0.384440 255 0 0
0.516341 0.206185 -0.103591 204 51 127
0.144861 -0.048280 0.136141 76 0 153
0.418849 -0.084546 0.246314 204 51 127
-0.177253 -0.697867 0.020449 0 0 255
0.418849 0.047399 -0.135421 255 0 0
0.229362 0.299415 -0.172337 255 0 0
0.029578 -0.635405 0.145208 76 0 153
0.418849 0.059705 0.057188 204 51 127
-0.162775 0.112619 -0.148868 255 0 0
0.418849 -0.135171 -0.103486 204 51 127
0.033930 -0.711287 -0.099067 204 51 127
0.021570 -0.763644 0.050557 76 0 153
0.044325 -0.847722 -0.348034 127 0 127
0.418849 0.079067 0.094416 204 51 127
0.154828 0.321368 -0.303235 255 0 0
0.167297 -0.168480 -0.185818 255 0 0
0.184101 0.422938 -0.334895 255 0 0
0.021636 0.346947 -0.213262 255 0 0
0.426752 0.220840 0.133525 204 51 127
0.232660 0.318048 -0.288086 255 0 0
-0.395614 0.026008 0.021365 153 0 76
0.399734 0.324546 -0.242159 255 0 0
0.118428 0.195339 -0.263620 255 0 0
-0.395614 -0.042071 0.179716 153 0 76
-0.395614 -0.100619 0.245282 153 0 76
0.448623 0.078031 0.374873 204 51 127
-0.395614 0.072295 0.061599 153 0 76
0.024788 -0.216954 0.507883 76 0 153
0.302656 -0.208960 0.524492 76 0 153
-0.007342 0.234594 -0.281791 255 0 0
-0.385151 -0.084128 0.419401 76 0 153
0.469912 0.174717 -0.069064 204 51 127
-0.395614 0.130365 0.219129 153 0 76
-0.195026 0.609918 -0.394609 255 0 0
0.479963 0.151393 0.223880 204 51 127
-0.395614 -0.015330 0.291621 153 0 76
0.441457 -0.760303 -0.016855 153 0 76
-0.485627 0.197572 -0.023516 153 0 76
0.270880 -0.693466 0.016706 153 0 76
0.246300 -0.804798 0.483936 204 51 127
0.021652 -0.482580 0.136977 76 0 153
0.418849 -0.080296 0.111327 204 51 127
-0.063769 -0.726021 0.241897 255 0 0
-0.353760 -0.178140 0.470101 76 0 153
0.423813 0.100442 0.306478 204 51 127
0.350219 -0.056465 0.121789 76 0 153
-0.148101 0.397976 -0.328456 255 0 0
-0.173055 -0.107951 -0.239489 255 0 0
-0.072709 -0.693807 0.237908 255 0 0
-0.285471 -0.139373 0.559485 76 0 153
0.031076 -0.314210 0.063865 76 0 153
0.314492 0.613947 -0.273951 255 0 0
0.264701 0.668271 -0.299343 255 0 0
0.454063 -0.048693 0.320062 204 51 127
0.479218 -0.866351 -0.072676 0 255 0
-0.000907 -0.036213 0.416186 76 0 153
-0.427557 -0.143473 0.418730 153 0 76
0.055208 0.481007 -0.260793 255 0 0
-0.118009 0.675727 -0.408209 255 0 0
0.011427 -0.132759 0.562717 76 0 153
0.460690 0.204560 0.225991 204 51 127
0.369469 -0.064774 0.018374 76 0 153
0.419487 0.186729 0.085109 204 51 127
-0.378340 -0.080751 0.257259 153 0 76
0.461417 -0.119746 0.305712 204 51 127
0.349208 0.591337 -0.259386 255 0 0
0.029158 -0.837717 0.052833 76 0 153
0.467089 -0.064370 -0.127559 204 51 127
0.448985 -0.777416 -0.042388 0 0 255
-0.106490 -0.038551 0.361647 76 0 153
-0.147312 -0.046454 0.183089 76 0 153
0.209681 0.493071 -0.354908 255 0 0
-0.279208 0.486870 -0.336186 255 0 0
-0.013928 -0.742659 0.172891 255 0 0
-0.049841 -0.217693 0.508792 76 0 153
0.412801 0.377240 -0.200511 255 0 0
0.177690 0.183255 -0.151240 255 0 0
-0.302470 0.361377 -0.173003 255 0 0
-0.350680 -0.060469 0.470043 76 0 153
-0.011361 -0.720862 -0.203107 204 51 127
0.467941 0.145996 -0.125286 204 51 127
0.279900 0.318814 -0.169600 255 0 0
-0.396487 0.206812 0.028093 153 0 76
-0.266713 -0.707610 0.468335 255 0 0
0.469912 -0.063096 -0.089613 204 51 127
-0.241874 0.203116 -0.241154 255 0 0
0.482469 0.083999 0.305368 204 51 127
0.121323 0.189736 -0.158635 255 0 0
0.449926 -0.102233 -0.148325 204 51 127
0.418849 0.057740 0.151177 204 51 127
0.279534 -0.060863 -0.114699 76 0 153
0.418849 -0.132693 0.268621 204 51 127
-0.158050 0.689233 -0.330639 255 0 0
0.098687 0.387640 -0.224110 255 0 0
-0.407765 -0.162184 -0.107440 153 0 76
0.328921 0.242802 -0.237360 255 0 0
-0.055114 0.477303 -0.365982 255 0 0
0.286954 0.299894 -0.159565 255 0 0
0.453989 -0.148348 -0.103224 204 51 127
0.416608 0.545098 -0.293195 255 0 0
-0.442488 0.013836 -0.133049 153 0 76
-0.446206 0.059070 0.304351 153 0 76
-0.368219 -0.036040 -0.202148 153 0 76
-0.470354 0.207450 0.240442 153 0 76
0.075459 0.431245 -0.350036 255 0 0
0.409226 -0.060279 -0.190538 204 51 127
-0.238200 -0.696570 0.007804 0 0 255
-0.321273 -0.015975 -0.108855 255 0 0
0.094135 0.585439 -0.402643 255 0 0
-0.122619 0.258038 -0.281635 255 0 0
0.469912 0.153178 0.073714 204 51 127
-0.380706 0.036092 -0.121638 255 0 0
0.016246 -0.693214 -0.135195 204 51 127
-0.269496 0.667550 -0.297968 255 0 0
0.350561 0.017455 -0.213815 255 0 0
0.003745 -0.698544 -0.240980 204 51 127
0.199444 -0.175163 -0.165864 255 0 0
-0.031845 -0.095961 0.542477 76 0 153
0.285126 0.182356 -0.233951 255 0 0
-0.010984 0.587466 -0.298537 255 0 0
-0.351689 0.398734 -0.178614 255 0 0
-0.112747 0.580977 -0.397461 255 0 0
-0.294034 -0.075681 -0.220967 255 0 0
-0.284263 0.374548 -0.295054 255 0 0
0.469912 0.080564 0.201289 204 51 127
-0.395614 -0.074368 -0.159805 255 0 0
-0.446677 -0.124304 0.073535 153 0 76
-0.071893 0.425065 -0.237737 255 0 0
-0.216262 -0.737190 0.000844 0 0 255
0.316697 -0.045895 0.214696 76 0 153
0.350158 -0.078134 -0.210932 255 0 0
-0.129879 -0.045451 -0.256921 255 0 0
0.377675 0.056266 -0.205879 255 0 0
-0.075842 -0.079800 -0.258729 255 0 0
0.264924 0.604908 -0.275849 255 0 0
-0.396815 0.202553 -0.070753 153 0 76
-0.025603 -0.393793 0.084113 76 0 153
-0.217769 -0.051379 0.077232 76 0 153
0.319818 0.383949 -0.296746 255 0 0
-0.066241 0.122465 -0.160513 255 0 0
-0.077396 -0.717241 0.182495 255 0 0
-0.462862 0.151336 0.325741 153 0 76
0.320576 0.659490 -0.293572 255 0 0
-0.016053 -0.485234 0.065530 76 0 153
-0.263023 0.475688 -0.334384 255 0 0
0.079842 -0.744185 0.101089 153 0 76
0.262335 0.467361 -0.335456 255 0 0
0.155283 0.118784 -0.154531 255 0 0
0.061508 -0.790661 0.093945 76 0 153
0.292272 -0.041384 0.303266 76 0 153
-0.206326 0.222888 -0.146919 255 0 0
0.045104 -0.676052 0.135360 76 0 153
-0.151410 0.561783 -0.277195 255 0 0
0.494285 -0.810865 -0.071765 0 255 0
0.461032 0.090978 -0.146496 204 51 127
-0.446978 0.188234 -0.124079 153 0 76
0.093630 0.204812 -0.268654 255 0 0
-0.184358 0.005283 -0.248455 255 0 0
0.517357 0.228880 -0.039403 204 51 127
0.435607 -0.176670 -0.034216 204 51 127
-0.352376 0.006640 -0.106896 255 0 0
-0.201455 0.380357 -0.202735 255 0 0
0.061582 -0.686352 0.077922 76 0 153
-0.045684 -0.723843 0.104650 76 0 153
-0.411198 0.147445 0.282666 153 0 76
0.248045 -0.048242 0.150512 76 0 153
0.150933 -0.052404 0.040806 76 0 153
-0.391532 0.494007 -0.252936 255 0 0
0.117755 0.599489 -0.297418 255 0 0
-0.326136 0.130611 -0.107429 255 0 0
-0.112699 -0.699714 0.078365 0 0 255
0.508562 0.193965 0.127906 204 51 127
-0.094556 -0.730989 0.206044 255 0 0
0.475110 0.234550 -0.164463 204 51 127
0.329947 0.574613 -0.254815 255 0 0
-0.226104 0.510648 -0.353653 255 0 0
0.383602 0.159772 -0.108079 255 0 0
0.317798 -0.177611 0.479941 76 0 153
0.110646 -0.044773 0.216254 76 0 153
-0.003014 -0.251587 0.135828 76 0 153
0.418849 -0.018105 -0.151977 255 0 0
-0.264960 -0.135130 0.563198 76 0 153
-0.446677 -0.090175 0.222341 153 0 76
-0.012093 -0.179821 0.131095 76 0 153
-0.446677 -0.111797 0.000505 153 0 76
-0.266615 -0.003849 -0.124888 255 0 0
-0.027287 -0.132470 -0.241789 255 0 0
-0.001892 -0.459056 0.062006 76 0 153
-0.024120 -0.343000 0.119067 76 0 153
-0.393979 -0.103420 0.377905 153 0 76
-0.023398 -0.114043 -0.251002 255 0 0
-0.063518 -0.044047 0.474363 76 0 153
-0.361649 -0.013107 -0.108933 255 0 0
-0.011361 -0.750915 -0.267176 204 51 127
0.402789 -0.143485 -0.158191 255 0 0
-0.051922 0.479959 -0.259107 255 0 0
-0.313552 0.584969 -0.257970 255 0 0
-0.443633 0.063351 0.281564 153 0 76
0.444794 0.100397 0.348825 204 51 127
0.361288 0.133909 -0.210675 255 0 0
0.128159 -0.056016 -0.259270 255 0 0
0.308361 0.395435 -0.192512 255 0 0
0.312640 -0.202977 0.507867 76 0 153
-0.030019 -0.693382 0.184945 255 0 0
-0.011361 -0.726822 0.037380 204 51 127
-0.395614 -0.046713 0.003539 153 0 76
0.412268 -0.170348 -0.104262 204 51 127
-0.292012 -0.048321 0.161660 76 0 153
0.331597 0.140869 -0.112643 255 0 0
0.343486 0.541026 -0.240886 255 0 0
0.435039 -0.096534 -0.161445 204 51 127
-0.446677 -0.050065 0.070080 153 0 76
0.143260 0.187589 -0.259894 255 0 0
-0.403106 0.221545 0.130820 153 0 76
-0.034747 0.073716 -0.265192 255 0 0
0.012111 -0.654869 0.047719 76 0 153
-0.312559 -0.056465 0.014373 76 0 153
-0.033454 -0.062026 0.506751 76 0 153
0.201832 -0.038537 0.363518 76 0 153
-0.392897 -0.003893 -0.171749 255 0 0
0.001848 -0.809011 -0.381041 127 127 0
0.030359 -0.566241 0.145013 76 0 153
-0.187074 -0.052585 0.043368 76 0 153
-0.345414 0.124738 -0.208521 255 0 0
0.344952 -0.018961 -0.215457 255 0 0
-0.030809 -0.572899 0.126421 76 0 153
0.398854 -0.091107 -0.058995 204 51 127
-0.182451 0.240829 -0.156505 255 0 0
0.270842 0.152300 -0.236262 255 0 0
0.382844 -0.724072 -0.045416 153 0 76
-0.446677 0.031092 0.210575 153 0 76
-0.273143 0.638991 -0.389619 255 0 0
0.033330 0.535528 -0.280123 255 0 0
-0.297765 -0.843715 0.511438 76 0 153
-0.446677 0.003706 0.078347 153 0 76
-0.163120 0.471212 -0.242844 255 0 0
0.010015 -0.694754 -0.205279 204 51 127
0.412108 0.248311 -0.194019 255 0 0
0.469912 0.097261 0.063357 204 51 127
0.080933 -0.042787 0.262662 76 0 153
-0.395614 0.150949 -0.155296 255 0 0
0.069018 0.157170 -0.264836 255 0 0
-0.446677 0.024002 -0.020554 153 0 76
0.222992 0.628836 -0.400413 255 0 0
-0.180772 -0.758102 0.368395 255 0 0
0.393562 0.041698 -0.201621 255 0 0
-0.023965 0.459634 -0.253215 255 0 0
0.351796 0.554316 -0.354271 255 0 0
-0.468010 0.067910 0.363307 153 0 76
0.209553 -0.101973 -0.239922 255 0 0
-0.457984 -0.845453 0.002214 76 0 153
0.401315 0.482149 -0.227311 255 0 0
-0.406653 -0.023427 -0.168622 153 0 76
-0.139298 -0.040369 0.321755 76 0 153
0.096930 -0.033572 -0.159836 255 0 0
-0.105934 0.164589 -0.156905 255 0 0
0.142278 -0.704296 0.311287 76 0 153
0.147318 0.429521 -0.234133 255 0 0
0.418849 0.112269 0.238600 204 51 127
0.034596 -0.733031 -0.250116 204 51 127
-0.399805 -0.074963 0.330505 153 0 76
-0.003577 -0.045074 0.206787 76 0 153
-0.298121 -0.066002 -0.118797 76 0 153
0.163868 0.648044 -0.309843 255 0 0
0.417049 -0.845654 -0.068761 255 0 0
0.220125 0.364210 -0.307217 255 0 0
0.350257 0.399170 -0.294803 255 0 0
-0.395614 -0.016927 0.192823 153 0 76
0.071523 -0.748139 0.082574 153 0 76
0.068319 0.338050 -0.209447 255 0 0
0.418849 -0.116277 0.189338 204 51 127
-0.110056 0.085304 -0.258787 255 0 0
0.427148 -0.160864 -0.112525 204 51 127
-0.446677 0.168606 -0.100597 153 0 76
0.418849 0.136220 0.077346 204 51 127
-0.042680 -0.763823 0.078470 76 0 153
0.418849 -0.143632 0.079533 204 51 127
-0.251647 0.098114 -0.129279 255 0 0
-0.310599 -0.169776 -0.146151 255 0 0
-0.074227 0.051218 -0.159788 255 0 0
-0.478034 0.195807 -0.133929 153 0 76
-0.395614 -0.059544 -0.133608 255 0 0
0.408055 -0.085351 0.370608 204 51 127
0.430867 0.155831 0.267969 204 51 127
0.418849 0.153442 0.071151 204 51 127
0.183189 0.316551 -0.188301 255 0 0
0.104345 -0.063034 -0.168122 255 0 0
0.501674 -0.850446 -0.055456 0 255 0
0.418849 -0.004340 0.117433 204 51 127
-0.003560 -0.485234 0.144161 76 0 153
-0.469757 -0.821948 -0.077175 76 0 153
-0.090595 0.639888 -0.312116 255 0 0
-0.263880 0.128440 -0.125691 255 0 0
0.469912 0.049278 -0.046879 204 51 127
-0.154601 -0.703836 0.358651 255 0 0
0.435487 0.186734 0.078492 204 51 127
0.405466 0.409874 -0.273190 255 0 0
-0.276219 -0.826692 0.530907 76 0 153
-0.440745 0.173905 0.285572 153 0 76
0.469912 0.131098 -0.011775 204 51 127
-0.362349 -0.086075 0.489865 76 0 153
-0.284625 -0.041538 0.458947 76 0 153
0.304624 0.258629 -0.251329 255 0 0
-0.117162 0.458367 -0.353570 255 0 0
0.212853 0.399129 -0.212053 255 0 0
-0.399217 -0.147027 0.380387 153 0 76
-0.000718 -0.165723 -0.201362 255 0 0
-0.153254 -0.042310 0.463690 76 0 153
0.354766 0.471699 -0.209698 255 0 0
-0.242561 -0.699209 0.449269 255 0 0
0.138888 -0.007288 -0.258260 255 0 0
-0.405957 0.027029 0.374521 153 0 76
0.002740 0.220074 -0.169319 255 0 0
0.140189 0.257425 -0.173646 255 0 0
-0.149432 -0.731569 0.281602 255 0 0
0.214046 0.664170 -0.306400 255 0 0
0.418849 -0.154033 -0.081810 204 51 127
0.406888 -0.161983 0.250708 204 51 127
0.441115 0.236600 0.058637 204 51 127
0.321037 0.684368 -0.354707 255 0 0
0.030785 -0.767219 0.144906 76 0 153
0.219090 0.174281 -0.246660 255 0 0
0.065345 0.051197 -0.265182 255 0 0
0.273675 0.528915 -0.355169 255 0 0
0.054746 -0.816594 0.071655 76 0 153
0.393924 -0.080549 0.033080 204 51 127
-0.109491 -0.052012 0.047072 76 0 153
0.168858 -0.043535 0.249609 76 0 153
0.288623 0.218690 -0.131208 255 0 0
-0.123916 0.608042 -0.297636 255 0 0
-0.224425 0.460096 -0.335885 255 0 0
-0.336633 0.277928 -0.242202 255 0 0
0.246673 0.355052 -0.188903 255 0 0
-0.038254 -0.048971 0.115402 76 0 153
0.411282 -0.100329 0.157795 204 51 127
-0.246223 0.345556 -0.290339 255 0 0
0.348588 0.524298 -0.233422 255 0 0
-0.372895 -0.074689 0.444889 76 0 153
-0.192211 -0.043382 0.253101 76 0 153
0.437908 -0.174982 -0.003819 204 51 127
0.502737 0.227669 0.175818 204 51 127
-0.434124 0.079120 0.381029 153 0 76
0.073955 0.567780 -0.398176 255 0 0
0.173302 0.065633 -0.151409 255 0 0
-0.084494 0.315247 -0.306079 255 0 0
0.315333 0.360013 -0.175662 255 0 0
-0.307577 -0.060203 -0.075946 76 0 153
-0.441311 0.014939 0.300152 153 0 76
0.410482 -0.167632 -0.044121 204 51 127
-0.447293 0.017864 0.403188 153 0 76
-0.111295 -0.059133 -0.119267 255 0 0
-0.395614 0.029181 -0.041606 153 0 76
-0.027295 -0.841312 0.129935 76 0 153
0.448323 0.237854 -0.112971 204 51 127
0.354769 -0.760931 -0.015289 153 0 76
0.292352 -0.723378 0.446441 76 0 153
-0.104136 -0.724583 0.219224 255 0 0
-0.429080 -0.794973 -0.072339 153 0 76
0.469912 0.052351 0.180862 204 51 127
-0.020524 -0.224114 0.074906 76 0 153
0.034596 -0.755671 -0.297063 204 51 127
-0.446677 -0.026283 0.183674 153 0 76
0.026487 -0.219351 0.528172 76 0 153
0.003092 0.022737 -0.163065 255 0 0
-0.155371 -0.016131 -0.254043 255 0 0
-0.148726 -0.048064 0.145845 76 0 153
0.453443 0.077649 0.277036 204 51 127
0.137068 0.634118 -0.415416 255 0 0
0.449271 -0.722618 -0.019321 153 0 76
0.469912 0.059766 0.010263 204 51 127
0.418849 0.024398 0.140884 204 51 127
0.387998 0.289518 -0.236968 255 0 0
-0.252727 0.182542 -0.130123 255 0 0
-0.425027 0.112271 0.245208 153 0 76
0.009993 -0.047279 0.154672 76 0 153
0.144588 -0.046756 0.171706 76 0 153
0.040706 -0.699400 0.139759 76 0 153
-0.293537 0.523982 -0.347579 255 0 0
-0.277122 -0.054371 0.018345 76 0 153
-0.446677 -0.040971 -0.085371 153 0 76
0.139277 0.190524 -0.157041 255 0 0
0.469912 0.067225 0.101260 204 51 127
-0.282852 -0.046002 0.202045 76 0 153
-0.141382 -0.054738 -0.011379 76 0 153
0.469912 -0.066531 -0.062230 204 51 127
0.379314 -0.076477 -0.202675 255 0 0
0.401768 -0.093423 -0.024417 204 51 127
-0.220452 0.113004 -0.137332 255 0 0
0.390070 0.609615 -0.352787 255 0 0
-0.385639 -0.105123 -0.048137 76 0 153
-0.395614 0.169131 -0.155671 255 0 0
-0.430620 -0.115051 -0.137285 153 0 76
0.329789 0.478206 -0.220160 255 0 0
-0.066761 0.509013 -0.267991 255 0 0
-0.395614 0.006049 0.261434 153 0 76
0.266189 -0.177496 -0.147972 255 0 0
0.469912 0.110335 -0.082147 204 51 127
0.224521 0.367167 -0.197978 255 0 0
-0.117837 -0.735486 0.316031 255 0 0
0.069810 0.688299 -0.342243 255 0 0
-0.131850 0.126526 -0.154549 255 0 0
0.469912 0.121338 -0.104011 204 51 127
-0.423332 -0.168302 -0.077151 153 0 76
-0.394573 -0.729959 -0.057007 0 0 255
-0.125107 -0.038740 0.441762 76 0 153
0.057534 -0.731741 0.078049 76 0 153
-0.166566 -0.050845 0.083008 76 0 153
0.348375 -0.186289 0.499453 76 0 153
0.482768 0.188895 0.101057 204 51 127
0.404193 0.404890 -0.197709 255 0 0
-0.033356 -0.510391 0.074275 76 0 153
-0.332083 -0.045227 0.408682 76 0 153
-0.446677 0.005595 0.150672 153 0 76
0.124165 0.405137 -0.227780 255 0 0
-0.446677 0.002849 0.271533 153 0 76
-0.247930 -0.038739 0.441755 76 0 153
-0.024770 -0.258444 0.116487 76 0 153
0.452623 0.041561 -0.155465 204 51 127
-0.053906 -0.076980 0.528377 76 0 153
-0.310198 0.677930 -0.313151 255 0 0
0.031800 -0.718937 -0.359440 204 51 127
0.418849 0.113930 0.178206 204 51 127
-0.129582 -0.206272 0.494735 76 0 153
0.051409 -0.001667 -0.265192 255 0 0
0.103595 -0.698151 0.194890 76 0 153
-0.410915 -0.800502 -0.087315 153 0 76
-0.056086 -0.692839 0.163822 255 0 0
0.418849 0.055981 0.237754 204 51 127
0.418849 -0.026763 0.306139 204 51 127
0.339602 0.153598 -0.217022 255 0 0
-0.003005 -0.647265 0.146043 76 0 153
0.469912 0.130640 0.045875 204 51 127
0.247442 0.280019 -0.271405 255 0 0
-0.257570 -0.810737 0.474659 153 0 76
-0.306594 0.299773 -0.260405 255 0 0
0.260176 -0.053536 0.032946 76 0 153
-0.113035 0.300186 -0.189245 255 0 0
0.469912 -0.069193 0.227316 204 51 127
0.418849 0.088954 0.169375 204 51 127
0.245764 -0.719734 0.382351 76 0 153
0.017354 0.275089 -0.187785 255 0 0
-0.037901 0.481280 -0.368725 255 0 0
-0.395614 -0.092998 0.008109 76 0 153
-0.006514 -0.068766 -0.173969 255 0 0
-0.231536 -0.035650 -0.239360 255 0 0
0.469912 0.039839 0.256915 204 51 127
-0.279744 -0.052890 -0.227741 255 0 0
-0.395614 -0.019190 -0.022147 153 0 76
-0.291813 0.682670 -0.314603 255 0 0
-0.135917 -0.037687 0.382887 76 0 153
0.319355 0.323741 -0.273446 255 0 0
-0.443321 -0.128158 0.406148 153 0 76
0.046959 -0.086591 0.535516 76 0 153
0.418849 -0.049492 0.029627 204 51 127
0.007251 0.613109 -0.415183 255 0 0
0.037732 -0.481597 0.069382 76 0 153
0.028917 -0.695734 -0.033773 204 51 127
-0.382224 -0.169880 0.135280 153 0 76
0.084283 -0.048745 0.122517 76 0 153
-0.295835 -0.058092 -0.042516 76 0 153
-0.318102 0.237206 -0.231242 255 0 0
-0.164911 -0.029682 -0.148440 255 0 0
0.457640 0.239003 0.022858 204 51 127
-0.038137 -0.735040 0.093399 76 0 153
0.282365 -0.809491 0.491235 76 0 153
0.469912 0.087660 -0.042399 204 51 127
-0.013800 -0.817877 0.143344 76 0 153
-0.070042 -0.049703 0.100585 76 0 153
0.429838 -0.152083 0.406405 204 51 127
0.518219 0.221401 -0.007042 204 51 127
-0.446677 0.113884 0.030668 153 0 76
0.398696 0.561944 -0.340160 255 0 0
0.469912 -0.076248 0.002143 204 51 127
-0.124827 -0.142175 -0.224377 255 0 0
-0.189740 -0.164120 0.570010 76 0 153
0.489504 -0.830541 -0.083873 0 255 0
-0.235756 0.047485 -0.238547 255 0 0
0.462464 -0.115768 -0.126155 204 51 127
0.469912 0.018073 0.129988 204 51 127
0.393918 0.369111 -0.265452 255 0 0
-0.248257 0.543967 -0.361014 255 0 0
-0.031243 -0.082336 0.532355 76 0 153
0.018490 -0.687431 0.037049 204 51 127
-0.011361 -0.731820 -0.098544 204 51 127
0.382504 -0.160350 0.512525 76 0 153
-0.395614 -0.098556 -0.089751 76 0 153
-0.308262 -0.706144 0.014284 0 0 255
0.288537 0.601893 -0.380359 255 0 0
0.302792 -0.148323 0.561532 76 0 153
0.462132 0.188199 -0.008657 204 51 127
-0.015119 -0.178840 0.572249 76 0 153
0.174047 -0.214095 0.504364 76 0 153
0.131126 0.541187 -0.275466 255 0 0
0.357989 0.232394 -0.224139 255 0 0
-0.388529 -0.108803 -0.014986 76 0 153
-0.217460 -0.168401 -0.172476 255 0 0
0.392225 -0.084663 -0.111031 204 51 127
-0.436514 -0.112926 0.326928 153 0 76
-0.436675 0.130289 0.338930 153 0 76
0.412521 -0.159551 0.047520 204 51 127
-0.476647 0.193863 0.023002 153 0 76
-0.118380 -0.710224 0.314211 255 0 0
0.094305 0.063793 -0.160075 255 0 0
0.205384 0.172311 -0.145180 255 0 0
0.423272 0.004993 0.360271 204 51 127
0.495112 0.241838 0.028156 204 51 127
-0.385142 -0.153876 0.368450 153 0 76
0.395945 0.556282 -0.252594 255 0 0
0.064352 -0.745500 0.057752 76 0 153
0.294924 0.276945 -0.261642 255 0 0
0.456712 -0.155986 0.233869 204 51 127
-0.100134 0.478082 -0.253801 255 0 0
0.468729 -0.132895 -0.007958 204 51 127
-0.018371 -0.870294 -0.368402 0 127 127
0.469912 0.038925 0.276927 204 51 127
0.469912 -0.118839 0.062044 204 51 127
0.239453 0.204251 -0.246707 255 0 0
-0.344762 -0.075291 0.497828 76 0 153
0.076048 0.091757 -0.161734 255 0 0
-0.385269 -0.151033 0.432377 153 0 76
-0.083334 -0.697717 0.259193 255 0 0
0.347164 -0.051677 0.479496 76 0 153
-0.097778 -0.044994 0.211080 76 0 153
0.091669 -0.176031 -0.176672 255 0 0
-0.011361 -0.714766 -0.070887 204 51 127
0.262337 -0.137928 -0.209534 255 0 0
-0.005619 0.018443 -0.265192 255 0 0
-0.176867 -0.715252 0.320432 255 0 0
0.117794 0.486487 -0.257348 255 0 0
0.439774 -0.161803 0.343651 204 51 127
-0.446035 -0.126128 0.282666 153 0 76
0.067603 -0.048139 0.135543 76 0 153
-0.395614 -0.113832 0.049605 153 0 76
-0.391052 -0.136973 0.451878 76 0 153
0.060875 0.417682 -0.346313 255 0 0
-0.147902 0.268547 -0.173398 255 0 0
0.401674 -0.081297 0.247831 204 51 127
-0.407359 -0.837375 -0.081566 153 0 76
0.273824 0.335694 -0.177039 255 0 0
0.418849 0.112641 -0.107083 204 51 127
0.088106 0.575815 -0.291856 255 0 0
-0.384677 -0.159078 0.270297 153 0 76
-0.246140 -0.707080 0.035942 0 0 255
0.059649 0.698293 -0.383219 255 0 0
0.192392 0.122313 -0.147591 255 0 0
-0.190167 0.516426 -0.362468 255 0 0
0.297250 0.554223 -0.361933 255 0 0
-0.232202 0.640136 -0.290282 255 0 0
-0.010476 -0.705187 0.044271 204 51 127
-0.042013 0.290688 -0.301494 255 0 0
0.326319 0.500112 -0.337674 255 0 0
0.169663 -0.038434 0.365859 76 0 153
-0.018909 0.056208 -0.265192 255 0 0
-0.210399 -0.706227 0.434977 255 0 0
0.283888 -0.796332 0.509507 204 51 127
-0.395614 -0.058511 0.260679 153 0 76
0.418849 0.046547 0.102279 204 51 127
0.387179 0.488480 -0.219470 255 0 0
0.054534 -0.061805 0.506396 76 0 153
-0.022361 -0.534258 0.063115 76 0 153
0.276185 -0.069519 -0.233667 255 0 0
-0.348627 0.656679 -0.336787 255 0 0
-0.446677 -0.081223 0.045591 153 0 76
0.418849 0.130548 0.174811 204 51 127
-0.480242 0.232457 0.154109 153 0 76
-0.395614 -0.125960 0.071458 153 0 76
-0.368768 -0.068576 0.346847 153 0 76
-0.163568 -0.042399 0.275492 76 0 153
-0.242291 0.260658 -0.149963 255 0 0
-0.193262 -0.040151 0.326876 76 0 153
0.105422 0.098983 -0.159064 255 0 0
0.139652 -0.113049 0.555171 76 0 153
0.246891 0.682761 -0.313391 255 0 0
-0.011361 -0.736325 -0.077067 204 51 127
-0.291066 -0.032817 -0.117716 255 0 0
0.027138 0.313292 -0.309525 255 0 0
-0.427460 -0.163415 0.161377 153 0 76
0.282419 0.644856 -0.391381 255 0 0
-0.395614 0.120525 -0.024924 153 0 76
-0.379120 -0.736335 -0.052061 0 0 255
0.404261 0.254421 -0.136107 255 0 0
0.296590 0.497932 -0.340973 255 0 0
0.169295 0.533110 -0.267977 255 0 0
-0.071720 0.566033 -0.395748 255 0 0
-0.446677 -0.087634 0.351159 153 0 76
0.038147 -0.040860 0.306365 76 0 153
0.202677 0.527809 -0.368495 255 0 0
-0.063517 -0.023812 -0.160761 255 0 0
-0.202032 0.540604 -0.260405 255 0 0
-0.218272 0.654484 -0.398902 255 0 0
0.077034 -0.037929 0.376172 76 0 153
-0.423330 -0.869010 -0.063558 153 0 76
-0.213764 0.403449 -0.208531 255 0 0
0.045432 0.372818 -0.222435 255 0 0
0.231412 -0.046503 0.185918 76 0 153
0.115167 -0.038767 0.356595 76 0 153
-0.181415 -0.056216 -0.039395 76 0 153
0.100721 -0.171037 0.571619 76 0 153
-0.454451 0.224227 0.191651 153 0 76
-0.092669 0.112758 -0.158111 255 0 0
-0.352656 -0.114855 -0.191805 255 0 0
-0.227419 -0.709627 0.459976 255 0 0
0.430284 -0.793193 -0.016542 255 0 0
0.057191 -0.549785 0.076677 76 0 153
-0.192854 0.485181 -0.350921 255 0 0
-0.480031 0.159248 0.297424 153 0 76
0.201197 0.700474 -0.358282 255 0 0
0.188798 0.036165 -0.252078 255 0 0
0.469912 0.170149 0.127862 204 51 127
0.404283 -0.082063 0.308481 204 51 127
-0.328269 -0.051571 0.237939 76 0 153
-0.097683 0.427648 -0.344707 255 0 0
0.211081 -0.052923 0.492106 76 0 153
0.079183 -0.015745 -0.263880 255 0 0
-0.395614 -0.044175 0.370350 153 0 76
0.504983 0.195901 -0.002913 204 51 127
0.375865 0.409464 -0.291124 255 0 0
0.051454 -0.037227 0.432467 76 0 153
-0.164686 -0.219205 0.536176 76 0 153
0.300090 -0.070663 -0.140512 255 0 0
0.057818 -0.058670 -0.114083 255 0 0
-0.446677 0.071693 0.044818 153 0 76
0.294295 -0.042164 0.462796 76 0 153
0.088359 0.238812 -0.172491 255 0 0
0.097838 0.605893 -0.301590 255 0 0
0.293132 -0.037714 0.383812 76 0 153
0.423850 0.215959 -0.182214 204 51 127
0.430219 0.081981 0.334231 204 51 127
0.418849 0.138143 -0.082253 204 51 127
0.190627 0.371951 -0.206763 255 0 0
0.088672 0.184201 -0.161340 255 0 0
0.469912 -0.051414 0.135382 204 51 127
0.349598 -0.059086 -0.114529 255 0 0
0.004926 -0.212703 0.137813 76 0 153
-0.117996 0.649002 -0.312730 255 0 0
0.019554 -0.000971 -0.163065 255 0 0
-0.237073 -0.814708 0.509656 153 76 0
0.213610 0.642501 -0.403635 255 0 0
-0.424014 -0.153588 -0.108415 153 0 76
0.145418 -0.694798 0.297557 76 0 153
0.431025 0.190068 -0.028487 204 51 127
0.039107 -0.152412 0.567287 76 0 153
-0.151371 -0.036320 0.414025 76 0 153
0.466727 0.051845 -0.129534 204 51 127
-0.408516 0.226982 -0.174922 255 0 0
-0.437414 -0.152779 0.195827 153 0 76
0.469912 0.095705 0.256480 204 51 127
-0.256742 -0.038191 -0.234474 255 0 0
0.265681 -0.219078 0.522697 76 0 153
-0.355540 -0.752491 -0.044461 0 0 255
0.318896 -0.830370 0.446189 153 0 76
0.369904 -0.702314 -0.030761 153 0 76
0.283644 -0.040812 -0.233400 255 0 0
-0.427373 -0.040372 -0.157615 153 0 76
-0.025425 -0.274758 0.083402 76 0 153
-0.086173 -0.048194 0.136295 76 0 153
-0.048391 -0.748168 0.076616 0 0 255
-0.108694 -0.002033 -0.156654 255 0 0
-0.165769 -0.204765 0.492881 76 0 153
0.165578 -0.732664 0.271887 76 0 153
0.186785 -0.040468 0.319497 76 0 153
-0.114042 -0.734276 0.232989 255 0 0
0.302171 -0.187238 0.563425 76 0 153
0.138132 -0.050920 0.073286 76 0 153
0.008151 0.524915 -0.384103 255 0 0
0.418849 -0.036221 0.108678 204 51 127
-0.135453 -0.043136 0.258700 76 0 153
-0.467357 0.146998 0.243189 153 0 76
-0.307410 -0.847823 0.487859 76 0 153
0.197391 0.694770 -0.377372 255 0 0
0.356129 -0.142608 -0.178692 255 0 0
-0.419970 0.109759 0.336507 153 0 76
-0.048038 -0.765556 0.177703 255 0 0
-0.108415 0.196400 -0.262500 255 0 0
-0.007887 0.373746 -0.222764 255 0 0
0.418849 -0.006242 0.175801 204 51 127
-0.453656 -0.012647 0.392995 153 0 76
0.451799 -0.164768 0.034343 204 51 127
0.293541 0.384927 -0.191927 255 0 0
0.098909 -0.109329 0.552408 76 0 153
0.419064 0.215372 -0.090530 204 51 127
-0.479915 0.185624 0.162959 153 0 76
0.049706 -0.302358 0.087586 76 0 153
-0.397146 0.096431 0.281804 153 0 76
0.439914 -0.867105 -0.021352 255 0 0
0.121635 0.140600 -0.259884 255 0 0
0.170267 0.542054 -0.379586 255 0 0
-0.080573 -0.052573 0.033592 76 0 153
-0.081593 0.304007 -0.193753 255 0 0
-0.218749 -0.724000 0.048475 0 0 255
-0.016612 -0.606886 0.057749 76 0 153
-0.033742 -0.804353 0.121451 76 0 153
-0.359117 0.640750 -0.302528 255 0 0
0.458073 -0.150534 0.331062 204 51 127
-0.341480 0.601650 -0.265074 255 0 0
-0.418136 0.236935 -0.115721 153 0 76
-0.094633 0.686478 -0.336508 255 0 0
0.016580 0.529602 -0.278022 255 0 0
-0.398642 -0.175880 0.095777 153 0 76
-0.190122 0.657014 -0.303981 255 0 0
0.147510 0.482077 -0.361256 255 0 0
-0.480859 0.215678 0.210078 153 0 76
0.301198 0.574088 -0.369357 255 0 0
0.254077 -0.800277 0.502913 204 51 127
0.409390 0.366255 -0.187401 255 0 0
0.408711 -0.105858 -0.071383 204 51 127
-0.414795 -0.168546 0.182781 153 0 76
-0.394082 0.459114 -0.257625 255 0 0
-0.146833 -0.057791 -0.081793 76 0 153
0.137943 0.676468 -0.326794 255 0 0
0.469912 -0.010339 -0.092815 204 51 127
0.016423 0.651553 -0.321259 255 0 0
0.289234 -0.739260 0.442330 76 0 153
-0.395614 0.109793 0.178818 153 0 76
-0.094599 -0.748386 0.206239 255 0 0
0.007502 -0.792855 0.148670 76 0 153
0.154399 -0.765684 0.055585 153 0 76
-0.183828 0.311832 -0.181552 255 0 0
0.389597 0.211438 -0.116385 255 0 0
-0.021554 -0.308317 0.075851 76 0 153
0.255576 0.222647 -0.141826 255 0 0
-0.325471 0.200528 -0.217504 255 0 0
0.277660 -0.208190 0.556701 76 0 153
-0.395614 0.036400 0.169850 153 0 76
0.269325 0.637603 -0.286802 255 0 0
0.052657 -0.866768 -0.373287 127 0 127
-0.188338 -0.708745 0.407026 255 0 0
-0.446677 -0.126024 0.173365 153 0 76
0.172324 -0.732570 0.071021 153 0 76
-0.119000 -0.710345 0.032876 0 0 255
