ply
format ascii 1.0
element vertex 1286
property float x
property float y
property float z
property uchar red
property uchar green
property uchar blue
end_header
-0.455995 -0.576462 -0.281928 76 153 0
0.128582 0.112840 -0.230590 255 0 0
-0.157590 -0.043456 0.354928 0 127 127
0.365636 0.130955 0.390014 255 0 0
-0.533529 0.036372 0.278112 127 0 127
0.341068 0.085360 0.337003 255 0 0
-0.139340 0.112840 -0.330791 255 0 0
0.472800 -0.050913 0.094454 127 127 0
-0.244989 0.032722 0.012216 76 0 153
0.019981 0.025820 0.079668 204 51 127
0.032140 0.025820 -0.141155 204 51 127
-0.252941 0.112840 0.004721 255 0 0
0.209887 -0.024560 0.168935 127 127 0
0.475843 0.140320 -0.078498 255 0 0
0.433032 0.140320 0.246087 255 0 0
0.129720 -0.032651 -0.313751 0 255 0
-0.210456 0.016660 0.043087 204 51 127
-0.100240 0.020403 0.354928 204 51 127
-0.414874 0.085360 0.310159 255 0 0
0.027991 0.016660 -0.056137 76 153 0
0.465878 -0.079310 -0.285016 153 0 76
0.245070 0.098930 0.021612 153 76 0
-0.015633 0.135464 0.380058 255 0 0
-0.402171 0.085360 -0.322972 255 0 0
0.438107 -0.591863 0.277758 76 0 153
0.128097 0.025820 0.320652 204 51 127
-0.453018 0.112840 -0.218102 255 0 0
0.460869 -0.135456 0.373703 76 0 153
0.483230 -0.002346 0.333430 76 0 153
-0.140921 0.140320 0.193627 255 0 0
-0.311395 0.112840 0.171450 255 0 0
0.095113 0.061143 0.368667 76 0 153
0.205967 -0.005173 -0.313751 0 255 0
-0.008282 0.140320 0.049595 255 0 0
-0.044714 -0.024560 -0.265862 153 0 76
0.079825 0.035243 -0.341231 0 255 0
-0.531064 0.131054 -0.374018 255 0 0
-0.344540 0.016453 -0.341231 0 255 0
-0.244989 0.039201 0.351068 76 0 153
-0.254818 0.093370 0.368667 76 0 153
0.483230 0.015917 0.324794 76 0 153
0.162483 0.025820 -0.161480 204 51 127
-0.484969 -0.702746 0.287122 153 76 0
-0.352986 0.112840 0.113067 255 0 0
0.449415 -0.322405 -0.289913 153 0 76
-0.296118 0.140320 -0.322908 255 0 0
-0.492422 -0.135579 -0.327084 76 153 0
-0.175769 0.112840 -0.051140 255 0 0
0.438008 -0.632524 -0.266125 153 0 76
0.504079 0.140320 0.277125 255 0 0
0.056345 0.016660 -0.072911 204 51 127
-0.068814 0.112840 -0.111976 255 0 0
0.437733 -0.719913 0.323784 76 0 153
-0.453462 0.112840 -0.357328 255 0 0
0.061390 0.140320 -0.323199 255 0 0
0.195362 0.016660 -0.099364 153 76 0
0.224581 0.112840 -0.049260 153 76 0
0.464910 0.090384 -0.074257 127 127 0
-0.337961 0.140320 0.214667 255 0 0
0.194690 0.099673 -0.020570 153 76 0
-0.030352 0.061142 0.342354 76 0 153
-0.489466 -0.481715 -0.267080 76 153 0
-0.263309 0.097270 -0.040273 76 0 153
0.483230 -0.015292 0.114168 127 127 0
-0.108364 -0.035401 -0.341231 0 255 0
0.162623 0.016660 0.310157 204 51 127
-0.400897 0.120659 -0.377871 255 0 0
0.213010 0.104359 0.148318 153 76 0
-0.398339 0.112840 0.364533 255 0 0
-0.515209 0.028627 -0.308137 76 153 0
-0.146840 0.025820 0.197548 204 51 127
-0.339592 0.112840 -0.146398 255 0 0
-0.354099 0.140320 0.057869 255 0 0
-0.293685 -0.024560 0.255279 0 255 0
0.201342 0.112840 -0.090893 255 0 0
0.220804 0.112840 -0.295487 153 76 0
0.191534 -0.024560 -0.259680 127 127 0
0.022001 0.112840 -0.007412 255 0 0
0.483230 0.018253 0.277845 127 127 0
-0.515209 0.059270 -0.304192 76 153 0
0.490044 -0.087275 0.362841 76 0 153
-0.072105 -0.052457 -0.313751 0 255 0
0.317914 0.112840 0.234983 255 0 0
-0.506049 0.034673 0.255487 127 0 127
0.200667 0.079134 -0.231311 153 0 76
-0.028835 0.055625 -0.341231 0 255 0
0.123203 0.112840 0.379729 255 0 0
0.346884 0.112840 -0.356088 255 0 0
-0.295369 -0.008832 0.057018 0 255 0
0.392516 0.112840 0.059552 255 0 0
0.217590 0.094616 0.349344 0 127 127
0.009087 0.107758 -0.249631 153 0 76
-0.533529 0.109596 0.087096 127 0 127
0.193026 0.025820 0.207405 204 51 127
0.220729 0.002920 0.246235 153 76 0
-0.188995 0.061134 -0.341231 0 255 0
-0.210912 0.008452 0.341188 76 0 153
0.011652 0.140320 -0.224568 255 0 0
0.483230 0.003596 0.117728 127 127 0
-0.490941 0.140320 0.038900 255 0 0
0.255118 -0.002422 0.354928 0 127 127
-0.019529 0.140320 -0.339656 255 0 0
-0.495330 -0.017596 -0.341231 76 153 0
-0.509113 -0.120274 -0.358271 76 153 0
-0.231910 -0.032417 -0.313751 0 255 0
0.142894 0.016660 0.004318 204 51 127
-0.244989 0.063515 0.048641 76 0 153
0.478019 0.140320 0.356440 255 0 0
0.467962 -0.402389 0.310209 76 0 153
-0.034626 -0.010274 0.327448 0 127 127
-0.501207 -0.481926 -0.313008 76 153 0
0.455750 0.082050 0.294297 127 127 0
0.118665 0.026853 -0.249631 153 0 76
-0.080009 0.112840 -0.149072 255 0 0
0.448550 -0.680074 -0.295926 153 0 76
-0.545140 -0.283092 -0.306766 76 153 0
-0.201595 0.112840 0.368305 255 0 0
0.437927 -0.282777 0.359100 76 0 153
0.355586 0.087873 0.307854 255 0 0
-0.166467 0.038173 -0.249631 153 0 76
0.245070 0.023476 0.054450 153 76 0
-0.018751 0.058349 -0.231311 153 0 76
-0.009943 0.096146 0.368667 76 0 153
-0.455529 0.111280 0.354928 0 127 127
-0.244989 0.003536 -0.019218 76 0 153
-0.470914 -0.394601 -0.310454 76 153 0
0.306121 -0.005791 0.349281 0 127 127
0.481138 -0.337735 0.353921 76 0 153
0.030100 0.140320 0.104047 255 0 0
-0.221670 0.079632 0.368667 76 0 153
0.154325 0.112840 -0.148608 255 0 0
-0.506049 -0.036161 -0.269805 127 0 127
0.259650 0.023933 0.327448 0 127 127
-0.063962 0.049934 -0.231311 153 0 76
0.265634 0.052376 0.327448 0 127 127
0.414413 0.112840 0.125879 255 0 0
0.194690 0.096754 -0.176617 153 76 0
-0.267889 0.071754 0.157547 76 0 153
-0.553862 0.112840 -0.265021 255 0 0
-0.423379 0.140320 0.035915 255 0 0
-0.240409 -0.016315 0.070476 0 255 0
0.245070 0.084997 0.306025 153 76 0
-0.467854 0.112840 -0.145133 255 0 0
-0.341971 0.112840 0.199220 255 0 0
-0.460378 0.078746 0.354928 0 127 127
0.439997 0.140320 0.325752 255 0 0
0.152658 0.140320 0.055484 255 0 0
-0.425539 0.112840 0.085069 255 0 0
-0.126010 0.016660 -0.259140 204 51 127
0.184240 0.140320 -0.039649 255 0 0
0.447276 -0.200988 0.339101 76 0 153
0.405938 -0.536378 0.305059 76 0 153
-0.254149 0.019522 -0.267382 76 0 153
-0.123212 0.016660 0.071730 204 51 127
-0.533006 0.036298 0.354928 153 76 0
-0.069008 0.112840 0.108927 255 0 0
0.423745 0.013385 0.345768 0 127 127
-0.056029 0.112840 -0.356344 255 0 0
-0.028979 0.081358 0.341188 76 0 153
-0.421869 0.112840 0.232738 255 0 0
-0.077722 0.112840 -0.002110 255 0 0
-0.021918 0.112840 -0.308433 255 0 0
0.455607 -0.788261 -0.319717 153 0 76
-0.295369 0.066461 0.190542 76 0 153
0.447072 -0.223378 -0.304045 153 0 76
0.464910 0.020967 0.300467 127 127 0
-0.545690 -0.249582 0.371684 153 76 0
0.488201 -0.225858 -0.303845 153 0 76
0.093403 0.025820 0.102841 204 51 127
0.099967 0.025820 -0.105605 204 51 127
0.483230 0.081556 -0.003726 127 127 0
0.360443 0.112840 -0.109068 255 0 0
-0.484185 -0.315028 0.304741 153 76 0
0.063338 0.024718 0.354928 76 0 153
0.464910 0.086846 -0.116501 127 127 0
-0.528350 -0.153770 0.316581 153 76 0
-0.564334 0.131483 -0.281819 255 0 0
-0.267889 0.077159 0.262251 76 0 153
0.172591 0.112840 0.038249 255 0 0
-0.230655 0.016660 -0.187918 204 51 127
-0.144662 0.027864 -0.341231 0 255 0
0.119373 0.140320 -0.185812 255 0 0
0.061906 0.025820 -0.237669 204 51 127
0.020161 0.097260 -0.231311 153 0 76
0.075260 0.025820 0.167152 204 51 127
-0.295369 0.062819 0.009708 76 0 153
-0.533529 0.052481 -0.238872 127 0 127
-0.271441 0.112840 -0.106872 255 0 0
0.194690 0.082502 0.135292 153 76 0
-0.570168 0.125420 0.246127 255 0 0
-0.533529 0.015643 -0.032048 127 0 127
-0.285244 -0.024560 0.301202 0 255 0
-0.496129 -0.226024 0.350193 153 76 0
0.483230 0.032181 -0.273367 127 127 0
-0.510654 -0.325330 0.303160 153 76 0
0.146579 0.025820 0.325483 204 51 127
0.321595 0.040605 0.354928 0 127 127
-0.295369 0.086141 0.285949 76 0 153
-0.552381 -0.136484 0.329371 153 76 0
-0.295369 -0.007824 0.291043 0 255 0
0.335923 0.112840 0.380489 255 0 0
-0.295369 0.093961 0.252871 76 0 153
0.470658 0.140320 -0.300066 255 0 0
0.194690 0.030304 0.004969 153 76 0
-0.295369 0.013230 0.231561 76 0 153
-0.187296 0.025820 0.119951 204 51 127
-0.109151 0.112840 0.290083 255 0 0
-0.558952 0.135083 -0.040156 255 0 0
-0.266047 0.112840 -0.295905 255 0 0
-0.532076 -0.115771 0.309704 153 76 0
-0.471248 0.112840 -0.262570 255 0 0
-0.097925 0.112840 -0.328169 255 0 0
0.464597 0.085360 0.129109 127 127 0
-0.244989 0.093402 -0.230182 76 0 153
-0.025910 -0.010820 0.109575 76 153 0
-0.240409 -0.008107 -0.278136 153 0 76
-0.225264 0.140320 -0.314292 255 0 0
-0.080109 0.006156 0.286116 76 153 0
-0.392880 0.112840 -0.099644 255 0 0
-0.538461 -0.314092 -0.311940 76 153 0
-0.208020 0.019893 -0.267951 204 51 127
-0.000063 -0.024560 -0.258064 153 0 76
-0.533529 0.047475 0.157875 127 0 127
-0.451038 0.140320 0.304378 255 0 0
-0.173960 0.112840 -0.375584 255 0 0
0.118605 0.058871 -0.231311 153 0 76
-0.497510 -0.094693 0.365569 153 76 0
0.455750 -0.028381 0.066755 127 127 0
-0.520420 -0.838311 -0.310115 76 153 0
-0.237392 0.112840 -0.212219 255 0 0
0.314665 0.140320 -0.117464 255 0 0
-0.005811 0.140320 0.211624 255 0 0
0.483230 0.101057 0.209170 127 127 0
-0.490023 0.112840 0.183478 255 0 0
0.483230 -0.010653 -0.060363 127 127 0
0.295889 0.112840 0.046389 255 0 0
-0.263309 0.032129 -0.203322 76 0 153
-0.387475 0.014811 0.327448 0 127 127
0.424179 -0.372137 0.325155 76 0 153
0.194690 0.027139 0.241985 153 76 0
-0.415260 0.112840 0.314892 255 0 0
-0.277948 -0.024483 0.327448 0 127 127
-0.506049 0.040211 0.116884 127 0 127
-0.241048 0.127538 -0.377871 255 0 0
-0.431923 0.140320 -0.029828 255 0 0
-0.140716 -0.024560 -0.248494 153 0 76
-0.006829 0.004473 -0.019787 76 153 0
0.245070 0.040683 0.021009 153 76 0
-0.211474 0.091646 -0.341231 0 255 0
0.206793 0.140320 0.171521 255 0 0
-0.434853 0.140320 0.358978 255 0 0
0.483230 0.095687 -0.140191 127 127 0
0.171328 0.140320 0.060248 255 0 0
-0.275442 0.140320 0.353926 255 0 0
0.015732 0.140320 -0.192426 255 0 0
0.245070 0.094595 -0.040008 153 76 0
-0.482376 -0.695540 -0.272446 76 153 0
0.461218 0.112840 -0.133521 127 127 0
0.455750 0.061096 -0.098088 127 127 0
-0.279304 0.068375 -0.327491 0 255 0
0.142088 0.067601 -0.231311 153 0 76
-0.552152 -0.157955 0.374951 153 76 0
-0.281836 -0.007765 0.354928 0 127 127
-0.225556 0.140320 -0.009206 255 0 0
-0.263309 0.090094 0.211983 76 0 153
-0.069078 0.025820 0.101530 204 51 127
-0.497788 -0.064174 0.295388 153 76 0
0.501149 -0.126410 0.356177 76 0 153
0.258035 0.140320 0.166244 255 0 0
-0.533529 0.036950 0.107599 127 0 127
-0.240783 0.112840 0.383048 255 0 0
0.063417 0.002920 -0.295071 153 0 76
0.379905 0.025233 -0.313751 0 255 0
0.245070 0.093590 -0.082002 153 76 0
0.368254 0.112840 0.179174 255 0 0
-0.074841 0.032986 -0.341231 0 255 0
-0.092580 0.129152 0.391567 255 0 0
0.137776 -0.049009 -0.341231 0 255 0
0.156753 -0.035443 -0.341231 0 255 0
-0.133272 0.112840 -0.019501 255 0 0
-0.136149 0.112840 0.376240 255 0 0
-0.493759 0.140320 -0.043388 255 0 0
0.121413 0.140320 -0.274286 255 0 0
0.373320 0.140320 -0.331157 255 0 0
-0.515209 0.031305 0.317708 153 76 0
-0.475411 -0.074189 0.339557 153 76 0
-0.495997 0.140320 -0.261530 255 0 0
-0.520003 0.112840 0.372476 255 0 0
0.272462 0.112840 -0.081181 255 0 0
0.483230 -0.009672 -0.132993 127 127 0
-0.437417 0.112840 -0.132200 255 0 0
0.192169 0.080308 -0.249631 153 0 76
0.342267 0.140320 -0.156575 255 0 0
0.194960 -0.032790 0.327448 0 127 127
-0.108211 0.016660 0.180256 204 51 127
-0.081912 0.016660 -0.240941 204 51 127
-0.378148 0.112840 0.073864 255 0 0
-0.511573 0.085360 -0.150524 127 0 127
-0.496914 0.066565 0.336608 0 127 127
-0.061578 0.002920 -0.004599 76 153 0
-0.295369 0.012615 0.048663 76 0 153
0.134848 0.131071 -0.373884 255 0 0
0.049239 0.140320 0.091839 255 0 0
-0.295369 0.095145 -0.249984 76 0 153
-0.295369 -0.021970 0.217443 0 255 0
-0.032829 0.016660 -0.216148 204 51 127
-0.114154 0.100491 0.368667 76 0 153
-0.484379 0.112840 -0.108115 255 0 0
-0.235940 0.035718 -0.341231 0 255 0
-0.025431 0.016660 0.240257 204 51 127
-0.235660 -0.024560 -0.255927 153 0 76
-0.497643 -0.659194 -0.284348 76 153 0
0.458603 0.020295 0.354928 76 0 153
0.090466 0.016660 0.349964 76 0 153
0.370518 0.140320 0.041716 255 0 0
0.499884 0.112840 0.148097 255 0 0
-0.506049 -0.020417 0.006190 127 0 127
0.224217 0.002920 -0.049331 127 127 0
-0.133371 0.025820 -0.082638 204 51 127
-0.469453 0.140320 -0.299018 255 0 0
0.460545 -0.345774 0.300001 76 0 153
-0.272976 -0.024560 -0.034346 0 255 0
0.022719 0.016660 -0.239296 204 51 127
0.460264 0.112840 0.050573 127 127 0
-0.219762 0.112840 0.048810 255 0 0
-0.473989 -0.047047 -0.327030 0 255 0
0.441512 -0.736196 -0.311965 153 0 76
-0.482556 -0.008787 -0.322911 76 153 0
-0.385860 0.101265 -0.288793 255 0 0
-0.210696 0.112840 0.130237 255 0 0
0.438039 -0.687041 -0.271374 153 0 76
-0.191701 0.025820 0.245416 204 51 127
-0.495604 0.140320 0.164865 255 0 0
0.165764 0.112840 -0.375924 255 0 0
0.424190 -0.756248 0.317580 76 0 153
0.440979 0.112840 -0.048678 255 0 0
-0.364430 0.112840 -0.369633 255 0 0
-0.515209 0.097425 0.060861 127 0 127
0.127566 -0.014976 0.354928 76 0 153
0.190110 -0.020320 0.129977 127 127 0
-0.043469 0.012723 -0.013800 76 153 0
-0.456762 -0.521718 0.304212 153 76 0
-0.263309 0.018324 0.292581 76 0 153
-0.277124 0.140320 0.123996 255 0 0
0.202156 0.002920 -0.243836 127 127 0
0.473177 -0.210733 -0.361236 153 0 76
-0.003976 0.025820 -0.203979 204 51 127
0.302796 0.140320 0.075539 255 0 0
-0.222568 0.112840 -0.287067 255 0 0
-0.207173 0.112840 -0.112391 255 0 0
-0.267889 0.016062 -0.216158 76 0 153
-0.521591 -0.385841 -0.283448 76 153 0
-0.314063 0.112840 -0.264381 255 0 0
-0.033327 0.016660 0.303916 204 51 127
-0.138618 0.001985 0.368667 76 0 153
-0.015034 0.002920 -0.267912 76 153 0
-0.209566 0.025820 0.079868 204 51 127
0.106409 0.023836 -0.267951 204 51 127
-0.042117 0.112840 0.173676 255 0 0
-0.260615 0.002920 -0.183398 76 0 153
-0.244989 0.039385 0.287105 76 0 153
-0.085642 0.140320 0.301696 255 0 0
0.284597 0.053183 0.354928 0 127 127
0.479070 -0.101105 -0.292137 153 0 76
0.200786 0.112840 0.022801 255 0 0
-0.299471 0.140320 0.165955 255 0 0
-0.490372 0.095037 -0.189592 255 0 0
0.245070 0.041242 0.123903 153 76 0
0.378831 0.140320 0.074720 255 0 0
0.133965 0.016660 -0.256901 204 51 127
0.163350 0.112840 -0.185472 255 0 0
-0.244989 0.060457 0.257749 76 0 153
-0.515209 0.090357 -0.064944 127 0 127
0.480331 -0.032544 0.295388 76 0 153
-0.276689 0.002920 -0.042313 76 0 153
-0.493905 0.059105 -0.281691 76 153 0
0.217590 0.104301 0.167617 153 76 0
-0.506239 -0.441673 0.332640 153 76 0
-0.057092 0.112840 0.350751 255 0 0
-0.139220 0.002920 -0.283965 153 0 76
-0.199007 0.140320 0.150559 255 0 0
0.464910 0.054731 0.319040 127 127 0
-0.247258 0.002920 0.066741 76 0 153
-0.043469 -0.001247 -0.165580 76 153 0
-0.470070 0.112840 0.372597 255 0 0
0.519870 0.127954 -0.323230 255 0 0
0.455750 0.044864 0.191783 127 127 0
0.245070 0.017620 -0.062621 153 76 0
0.060064 0.140320 -0.283233 255 0 0
0.030320 0.050794 0.368667 76 0 153
-0.550968 0.140320 0.261045 255 0 0
0.154965 0.016660 0.215242 204 51 127
0.461148 -0.784977 0.312682 76 0 153
0.485770 0.112840 -0.021388 255 0 0
0.138667 0.140320 0.163739 255 0 0
-0.088386 0.112840 -0.284250 255 0 0
-0.290497 0.047829 0.354928 0 127 127
0.231683 -0.024560 0.045412 127 127 0
-0.275087 -0.024560 -0.012750 0 255 0
0.202477 0.108260 -0.046983 153 76 0
0.509035 0.134657 0.048706 255 0 0
0.421009 0.112840 0.257850 255 0 0
0.113692 0.140320 0.065955 255 0 0
-0.263309 0.061501 0.312746 76 0 153
0.114419 0.140320 0.274422 255 0 0
-0.410425 0.140320 -0.200216 255 0 0
0.293569 0.140320 -0.071107 255 0 0
-0.538543 -0.080497 0.344476 153 76 0
-0.115726 0.088721 -0.313751 0 255 0
0.027969 0.140320 -0.337347 255 0 0
0.245070 0.042402 0.088011 153 76 0
0.227647 0.112840 0.327139 255 0 0
-0.489184 -0.837365 0.319543 153 76 0
0.213010 0.057092 0.130722 153 76 0
-0.188413 0.057029 -0.249631 153 0 76
0.039137 0.025820 -0.041617 204 51 127
0.455750 0.017081 0.147017 127 127 0
0.212004 -0.024560 -0.097321 127 127 0
0.038403 0.025820 0.245105 204 51 127
-0.516942 -0.409229 -0.315333 76 153 0
0.016147 -0.059056 0.350616 0 127 127
-0.079485 0.016660 0.322626 204 51 127
0.243758 0.131084 -0.377308 255 0 0
-0.295369 0.049959 0.173758 76 0 153
0.254507 0.140320 0.310308 255 0 0
0.363030 0.140320 0.086826 255 0 0
-0.098660 0.099269 -0.249631 153 0 76
-0.240409 -0.012967 0.215999 0 255 0
-0.295369 -0.001571 0.310843 0 255 0
-0.266877 -0.024560 0.035511 0 255 0
-0.043469 -0.004776 -0.084646 76 153 0
0.419691 -0.675747 -0.306244 153 0 76
-0.495004 -0.138423 -0.360176 76 153 0
0.424583 -0.673686 0.283521 76 0 153
-0.241134 0.112840 -0.261351 255 0 0
-0.525241 -0.011266 0.295388 153 76 0
0.455750 0.047229 0.266748 127 127 0
0.445719 -0.161836 0.372660 76 0 153
0.315446 0.112840 0.253411 255 0 0
-0.498925 0.112840 -0.363128 255 0 0
-0.533529 0.052581 0.014614 127 0 127
0.146672 0.140320 -0.205202 255 0 0
-0.309995 0.112840 0.059770 255 0 0
0.273428 -0.001588 -0.313751 0 255 0
0.213010 0.064687 -0.029356 153 76 0
-0.476749 -0.357670 -0.311419 76 153 0
0.477596 0.140320 0.104635 255 0 0
0.102718 0.112840 -0.349249 255 0 0
0.432555 0.094958 0.295388 76 0 153
-0.171180 0.044022 -0.313751 0 255 0
-0.507799 -0.463893 0.301021 153 76 0
-0.036010 0.008565 0.341188 76 0 153
0.457529 0.140320 0.340024 255 0 0
-0.353233 0.136896 0.379111 255 0 0
0.410691 -0.465069 0.304969 76 0 153
-0.205149 0.112840 -0.352539 255 0 0
0.466924 0.085360 0.213885 255 0 0
-0.159875 0.112840 -0.273258 255 0 0
-0.497589 0.014454 0.295388 153 76 0
0.173324 0.016660 0.030056 204 51 127
-0.244989 0.084857 0.320780 76 0 153
-0.004077 0.112840 0.066645 255 0 0
-0.295369 0.001240 -0.298234 0 255 0
-0.520148 -0.392784 0.313624 153 76 0
0.402334 0.140320 0.219855 255 0 0
0.468364 0.112840 0.151279 255 0 0
-0.025442 0.016660 -0.076321 76 153 0
-0.008665 0.140320 0.312162 255 0 0
0.144033 0.025820 -0.193756 204 51 127
0.455750 0.100576 -0.019500 127 127 0
0.194690 0.080320 -0.166188 153 76 0
0.085059 0.140320 0.202000 255 0 0
0.134239 0.057355 -0.341231 0 255 0
0.136865 0.112840 -0.026674 255 0 0
0.502099 0.112840 -0.145053 255 0 0
-0.257979 -0.030633 0.354928 0 127 127
-0.533529 -0.004130 -0.022354 127 0 127
-0.560615 0.133479 -0.336387 255 0 0
0.104154 0.140320 0.186218 255 0 0
-0.496518 -0.328402 -0.288992 76 153 0
-0.463722 -0.441871 -0.318418 76 153 0
0.455750 0.026148 -0.141265 127 127 0
0.447440 -0.744894 0.293812 76 0 153
-0.533529 0.042674 -0.045498 127 0 127
0.244157 0.002920 0.088286 153 76 0
0.018392 0.112840 -0.167058 255 0 0
-0.515164 -0.816326 0.338612 153 76 0
0.420861 -0.393056 0.314420 76 0 153
-0.209777 0.112840 -0.032263 255 0 0
-0.464204 -0.438368 0.330084 153 76 0
-0.506049 0.110289 -0.034887 127 0 127
-0.267889 0.070270 -0.311310 76 0 153
-0.234966 0.025820 -0.021057 204 51 127
-0.506049 0.050980 0.246740 127 0 127
0.190110 -0.023987 0.194555 127 127 0
0.050965 0.015480 0.368667 76 0 153
-0.506049 0.039846 0.279200 127 0 127
0.208637 0.086702 -0.341231 0 255 0
-0.556200 0.140320 0.234533 255 0 0
0.450918 -0.517452 0.307921 76 0 153
0.009565 0.016660 -0.061769 76 153 0
0.407803 -0.497829 0.292859 76 0 153
-0.277049 0.091764 0.338511 76 0 153
0.519870 0.129184 0.306151 255 0 0
-0.254149 0.020000 0.201737 76 0 153
-0.475277 0.051775 0.336608 0 127 127
-0.533529 0.094475 0.307655 153 76 0
-0.219309 0.016660 -0.131949 204 51 127
-0.506049 0.074511 -0.098539 127 0 127
-0.150176 0.016660 -0.131930 204 51 127
0.463911 -0.013894 0.243152 127 127 0
-0.295369 0.075824 -0.007751 76 0 153
-0.286056 0.140320 -0.168880 255 0 0
0.481710 -0.139201 -0.360203 153 0 76
0.335845 0.085360 0.314802 255 0 0
0.440330 -0.352432 -0.336682 153 0 76
-0.452166 0.140320 0.047558 255 0 0
0.339763 0.058909 0.354928 0 127 127
0.242382 0.087859 0.327448 0 127 127
0.049174 0.057274 -0.313751 0 255 0
-0.043469 0.007453 -0.204191 76 153 0
-0.530888 -0.289463 0.365339 153 76 0
-0.515209 0.067574 0.310361 127 0 127
-0.295369 -0.015442 0.234772 0 255 0
0.070630 0.018967 -0.313751 0 255 0
0.194690 0.061681 -0.256977 153 76 0
-0.423589 0.112840 -0.112551 255 0 0
0.094761 0.025820 0.214203 204 51 127
-0.456961 -0.607432 -0.286262 76 153 0
0.432322 -0.319724 -0.337259 153 0 76
0.442518 0.130180 0.391567 255 0 0
-0.456812 -0.604078 0.286086 153 76 0
-0.480937 -0.378317 -0.281202 76 153 0
0.424966 -0.639661 -0.304625 153 0 76
-0.295369 0.053800 -0.065907 76 0 153
-0.267889 0.083371 -0.223875 76 0 153
0.044934 0.112840 0.337447 255 0 0
-0.000764 0.112840 0.106878 255 0 0
0.190110 0.002267 0.084802 127 127 0
0.473442 -0.096842 0.304603 76 0 153
0.483230 0.024476 0.160412 127 127 0
0.334256 0.097343 0.354928 0 127 127
0.483230 0.086013 0.257229 127 127 0
-0.044817 0.112840 -0.271210 255 0 0
-0.241699 0.112840 -0.089596 255 0 0
-0.513199 0.081693 -0.341231 76 153 0
-0.286209 0.061358 0.337765 76 0 153
-0.035054 0.140320 0.181723 255 0 0
0.452615 -0.501604 -0.285092 153 0 76
0.194690 0.070742 0.221502 153 76 0
0.144072 0.112840 0.201293 255 0 0
0.437202 0.072307 0.336608 0 127 127
-0.406295 0.084003 0.354928 0 127 127
-0.138977 0.033848 0.341188 76 0 153
0.111595 0.025820 0.169432 204 51 127
-0.336256 0.112840 0.264411 255 0 0
0.426332 -0.671275 -0.269553 153 0 76
0.231312 0.002920 -0.121045 153 76 0
0.108911 0.016660 -0.121906 204 51 127
0.019435 0.112840 -0.357588 255 0 0
-0.482845 -0.547196 -0.263702 76 153 0
-0.213214 0.055329 -0.341231 0 255 0
-0.078728 0.010285 0.341188 76 153 0
0.411746 -0.003631 0.354928 0 127 127
0.517087 0.130951 0.010036 255 0 0
0.194690 0.053187 -0.093813 153 76 0
0.040927 0.067087 -0.341231 0 255 0
-0.388322 0.140320 0.369055 255 0 0
0.425857 0.048965 0.354928 76 0 153
-0.015162 0.056251 0.352205 0 127 127
-0.505593 -0.438871 0.285534 153 76 0
-0.501160 -0.359788 -0.334980 76 153 0
0.213010 0.088189 0.039940 153 76 0
-0.184738 -0.063712 -0.339746 0 255 0
0.464910 0.088777 -0.240790 127 127 0
0.185168 0.025820 -0.075040 204 51 127
-0.384621 -0.004368 -0.334417 0 255 0
-0.486235 -0.594587 -0.264146 76 153 0
0.194690 0.106604 -0.072700 153 76 0
0.161212 0.016660 0.124216 204 51 127
-0.077946 0.140320 0.110598 255 0 0
0.194690 0.070225 -0.107327 153 76 0
-0.253563 -0.017753 -0.313751 0 255 0
-0.049480 0.131802 -0.371190 255 0 0
0.152397 0.025820 -0.092071 204 51 127
0.218538 0.112840 -0.074799 255 0 0
-0.459463 -0.480769 0.295783 153 76 0
-0.180006 0.140320 -0.066062 255 0 0
0.519870 0.130282 -0.112309 255 0 0
0.343368 0.085360 -0.303643 255 0 0
-0.410594 0.112840 0.181309 255 0 0
0.194690 0.094922 0.236237 153 76 0
-0.286026 0.112840 -0.238061 255 0 0
0.213010 0.026321 -0.264635 153 76 0
0.501102 0.140320 -0.341523 255 0 0
0.439565 0.140320 0.172589 255 0 0
0.245070 0.058315 0.034016 153 76 0
0.061545 0.140320 0.250496 255 0 0
0.499176 -0.114315 -0.311496 153 0 76
0.455750 0.080365 -0.058857 127 127 0
0.321395 0.137600 -0.365037 255 0 0
-0.542201 0.140320 0.159160 255 0 0
-0.391128 0.051769 -0.313751 0 255 0
-0.478039 0.107422 0.295388 153 76 0
-0.475323 -0.556815 0.319560 153 76 0
0.245070 0.030720 0.281546 153 76 0
0.383703 0.128172 0.391567 255 0 0
-0.249514 0.025820 0.274135 76 0 153
0.456212 -0.815481 -0.293028 153 0 76
0.355636 0.140320 -0.236626 255 0 0
-0.475937 -0.075605 -0.326060 76 153 0
0.519870 0.129472 0.204988 255 0 0
0.465044 -0.033720 0.305436 76 0 153
0.213010 0.073303 0.082318 153 76 0
0.201033 0.066581 -0.313751 0 255 0
-0.202319 0.007916 -0.341231 0 255 0
-0.295369 0.054477 -0.227796 76 0 153
-0.279937 0.002920 -0.242958 76 0 153
0.406746 0.117440 -0.377871 255 0 0
0.483190 -0.062843 0.017595 127 127 0
0.429915 0.140320 0.073126 255 0 0
0.074986 0.112840 -0.057731 255 0 0
0.006692 -0.004994 0.327448 0 127 127
-0.343613 0.112840 0.309405 255 0 0
-0.006829 -0.008151 0.108687 76 153 0
-0.544451 -0.095551 -0.322310 76 153 0
-0.553760 -0.163613 -0.328034 76 153 0
-0.482876 -0.592853 0.277788 153 76 0
-0.015454 0.076100 -0.313751 0 255 0
0.013318 0.140320 0.316536 255 0 0
-0.477005 0.140320 -0.317800 255 0 0
0.192042 0.140320 0.205696 255 0 0
-0.105289 0.016660 0.103427 204 51 127
0.483230 0.053009 -0.265029 127 127 0
0.245070 0.001448 0.138209 127 127 0
-0.518954 -0.041274 0.278443 127 0 127
0.194690 0.034060 -0.161904 153 76 0
0.482660 0.112840 -0.359636 255 0 0
0.048906 0.112840 -0.338295 0 255 0
0.172771 0.068109 -0.341231 0 255 0
-0.244989 0.080405 0.095540 76 0 153
-0.276852 0.096117 0.368641 76 0 153
0.173111 -0.022591 -0.240471 153 0 76
0.112398 0.112840 -0.057086 255 0 0
-0.045887 0.112840 0.099963 255 0 0
0.005017 0.025820 -0.108568 204 51 127
0.229557 0.002920 -0.097715 127 127 0
0.385561 0.112840 -0.196359 255 0 0
-0.506049 0.061080 -0.081080 127 0 127
-0.220505 0.025820 0.169756 204 51 127
-0.511244 0.085360 -0.278113 127 0 127
0.170452 -0.056728 -0.328266 0 255 0
-0.262909 0.032910 0.368667 76 0 153
-0.088975 0.140320 0.210905 255 0 0
0.092939 0.112840 -0.327430 255 0 0
-0.524296 -0.032349 0.354928 153 76 0
0.111368 0.005572 0.368667 76 0 153
-0.506855 -0.249144 -0.358046 76 153 0
0.395374 0.112840 -0.287180 255 0 0
0.174391 0.112840 0.177783 255 0 0
-0.351238 0.016144 0.327448 0 127 127
0.245070 0.080066 0.009306 153 76 0
0.431430 0.112168 0.354928 76 0 153
-0.043469 0.016297 0.123920 76 153 0
-0.433788 0.140320 -0.281216 255 0 0
-0.384617 0.138777 -0.364551 255 0 0
0.492812 0.112840 -0.273766 255 0 0
0.148346 0.034800 0.368667 76 0 153
-0.008197 0.025820 0.337111 204 51 127
-0.244989 0.053247 0.338046 76 0 153
-0.495826 0.023842 -0.281691 76 153 0
0.171791 0.016660 0.190027 204 51 127
-0.086535 0.119839 -0.377871 255 0 0
-0.180327 -0.047099 0.354928 0 127 127
0.296480 0.056435 0.327448 0 127 127
-0.045010 0.002920 0.076725 76 153 0
-0.486896 -0.403265 -0.277233 76 153 0
0.287364 0.046956 -0.341231 0 255 0
-0.124354 0.112840 -0.065135 255 0 0
0.184417 0.031236 0.341188 76 0 153
0.050651 0.016660 -0.192004 204 51 127
-0.559634 0.134357 -0.364772 255 0 0
-0.460221 -0.655014 -0.289369 76 153 0
-0.261335 0.140320 0.303262 255 0 0
-0.389650 0.140320 -0.102056 255 0 0
-0.506049 0.051178 -0.143762 127 0 127
0.442596 0.112840 0.229761 255 0 0
0.027465 0.140320 0.041783 255 0 0
-0.511694 0.099100 0.105780 127 0 127
-0.267889 0.042258 0.191556 76 0 153
-0.473667 0.021889 -0.313751 0 255 0
-0.485505 -0.548202 -0.306407 76 153 0
0.114584 0.002920 -0.297247 153 0 76
-0.515209 0.092276 -0.117797 127 0 127
0.245070 0.077227 0.072048 153 76 0
-0.506049 0.011865 0.024518 127 0 127
-0.529693 0.112840 -0.322161 76 153 0
0.068744 0.101331 -0.231311 153 0 76
-0.520299 -0.036858 -0.281691 127 0 127
-0.558008 0.136383 0.357032 255 0 0
-0.025384 0.025820 0.348874 204 51 127
-0.038402 0.108260 0.356566 76 0 153
-0.504963 -0.741725 0.310639 153 76 0
-0.363518 0.056639 0.354928 0 127 127
-0.200376 0.140320 0.048910 255 0 0
-0.508017 -0.462443 -0.289945 76 153 0
0.320881 0.140320 -0.255007 255 0 0
0.245070 0.040284 -0.124536 153 76 0
0.424964 -0.073788 -0.326070 153 0 76
-0.096064 0.016660 0.084504 204 51 127
0.059031 -0.063010 0.327815 0 127 127
-0.550184 -0.117901 -0.352395 76 153 0
0.455750 0.062717 0.223920 127 127 0
-0.295369 -0.013448 -0.070303 0 255 0
-0.491494 0.140320 0.098749 255 0 0
0.207543 -0.024560 0.281419 127 127 0
-0.180007 0.112840 -0.006004 255 0 0
0.483230 -0.016180 -0.094964 127 127 0
-0.507479 0.089554 0.178422 255 0 0
-0.238347 0.140320 0.063874 255 0 0
-0.506049 0.001506 0.152062 127 0 127
0.455750 0.003584 -0.040536 127 127 0
-0.473989 0.036153 -0.297019 76 153 0
-0.070614 0.025820 -0.013300 204 51 127
-0.258756 0.002920 -0.160754 76 0 153
0.054253 0.033694 -0.341231 0 255 0
-0.525329 -0.208323 0.318704 153 76 0
-0.107753 0.044211 -0.249631 153 0 76
0.143736 0.025820 -0.134654 204 51 127
0.245070 0.053115 -0.304183 153 76 0
0.061729 0.016660 0.336433 204 51 127
0.245070 0.060776 0.008031 153 76 0
0.425655 0.112840 0.319273 76 0 153
-0.134665 0.112840 0.112242 255 0 0
-0.490697 0.096162 0.345768 0 127 127
-0.484893 -0.025062 0.295388 153 76 0
0.483230 -0.059505 -0.314575 153 0 76
-0.522587 -0.381053 -0.310503 76 153 0
-0.017983 0.025820 0.083472 204 51 127
-0.442390 -0.005790 0.327448 0 127 127
-0.271652 -0.024560 0.056707 0 255 0
-0.495621 -0.231037 -0.315096 76 153 0
0.205189 -0.024560 0.112918 127 127 0
-0.076857 0.112840 -0.178566 255 0 0
-0.282489 0.002920 0.106416 0 255 0
-0.204848 0.016660 0.314725 204 51 127
-0.567581 0.130951 -0.103740 255 0 0
-0.501469 0.012046 0.344095 153 76 0
0.191017 0.002920 0.109382 127 127 0
0.038967 0.115964 0.391567 255 0 0
-0.506049 0.063193 0.130477 127 0 127
0.014622 0.002920 0.216939 76 153 0
-0.300594 0.140320 0.215581 255 0 0
-0.531431 -0.338465 -0.340047 76 153 0
-0.533529 0.033321 0.174696 127 0 127
-0.511488 0.085360 -0.004437 127 0 127
0.318247 0.140320 0.206881 255 0 0
0.488022 -0.182208 0.375558 76 0 153
-0.024756 -0.010820 -0.057618 76 153 0
-0.271548 0.140320 -0.035686 255 0 0
0.423690 0.004992 -0.297715 153 0 76
0.430202 0.140320 -0.062539 255 0 0
-0.384972 -0.004385 0.343626 0 127 127
-0.508189 -0.806359 -0.291397 76 153 0
0.389513 0.112840 0.321333 255 0 0
-0.173531 0.112840 -0.104464 255 0 0
0.031332 0.138684 0.378286 255 0 0
-0.418589 0.097295 0.291089 255 0 0
-0.078531 0.112840 -0.216590 255 0 0
-0.190172 0.013967 -0.313751 0 255 0
0.012284 0.002920 0.152705 76 153 0
-0.121813 -0.024560 -0.255469 153 0 76
-0.146714 0.140320 0.215627 255 0 0
0.245070 0.009007 -0.004849 153 76 0
0.385917 0.112840 -0.344217 255 0 0
-0.040487 0.112840 -0.307050 255 0 0
0.391543 0.140320 -0.122024 255 0 0
0.425748 0.112840 -0.354485 255 0 0
-0.380605 0.112840 -0.208385 255 0 0
-0.552167 -0.133636 -0.307788 76 153 0
0.483230 0.056469 0.146851 127 127 0
-0.473989 0.030774 0.333342 153 76 0
0.076357 0.056561 0.341188 76 0 153
0.162288 -0.011760 0.368543 76 0 153
-0.533529 0.006820 -0.117575 127 0 127
-0.021765 0.140320 0.124096 255 0 0
-0.295369 0.085327 -0.131104 76 0 153
-0.420298 0.112840 -0.325720 0 255 0
-0.360510 0.112840 0.235260 255 0 0
-0.138195 0.140320 0.129667 255 0 0
-0.254149 0.071787 -0.248331 153 0 76
-0.295369 0.051465 -0.192403 76 0 153
0.086610 0.140320 -0.263051 255 0 0
-0.261159 0.108260 0.328540 76 0 153
-0.341198 -0.001681 -0.341231 0 255 0
0.190110 -0.019069 0.084864 127 127 0
0.441936 -0.544458 0.277437 76 0 153
-0.286209 0.100169 -0.318750 0 255 0
-0.502837 -0.289206 0.308658 153 76 0
-0.108383 0.112840 -0.035597 255 0 0
0.258009 0.112840 -0.118845 255 0 0
-0.043857 0.016660 -0.143439 76 153 0
0.085109 0.140320 0.294176 255 0 0
0.455750 0.019466 -0.236225 127 127 0
-0.495319 -0.766542 -0.316183 76 153 0
-0.245102 0.140320 -0.103499 255 0 0
0.063208 0.140320 0.113077 255 0 0
-0.491844 0.140320 -0.003041 255 0 0
-0.224088 0.140320 0.036851 255 0 0
0.455750 0.040917 -0.221142 127 127 0
0.437815 -0.114939 0.320666 76 0 153
0.467329 -0.398655 -0.326697 153 0 76
-0.497096 -0.580843 0.318381 153 76 0
0.152125 0.112840 -0.200113 255 0 0
0.462468 0.099713 0.295388 127 127 0
-0.514432 -0.422892 -0.303939 76 153 0
-0.159053 0.025820 0.317626 204 51 127
0.213010 0.105145 -0.183468 153 76 0
0.455750 -0.055492 0.037229 127 127 0
0.498472 -0.261076 -0.353217 153 0 76
-0.267889 0.060670 0.275930 76 0 153
0.141487 0.140320 -0.130759 255 0 0
-0.295369 0.109031 -0.131142 76 0 153
0.111781 0.140320 0.240927 255 0 0
0.423690 0.071779 0.321188 76 0 153
0.228769 -0.044679 -0.326290 0 255 0
0.259453 0.112840 -0.036169 255 0 0
-0.062625 0.025820 -0.211580 204 51 127
0.210771 0.112840 0.114732 255 0 0
-0.166280 0.140320 -0.289217 255 0 0
-0.424051 0.085360 -0.318211 0 255 0
0.177285 0.097142 -0.341231 0 255 0
0.481970 -0.161848 -0.361401 153 0 76
-0.203366 0.140320 0.175315 255 0 0
0.038320 0.002920 -0.244127 153 0 76
-0.024886 0.016660 -0.182126 76 153 0
-0.515209 0.089574 -0.227524 127 0 127
-0.340110 0.140320 0.160172 255 0 0
0.225900 0.140320 -0.133664 255 0 0
-0.061685 0.002920 -0.107906 76 153 0
0.109196 0.140320 -0.010998 255 0 0
0.181910 0.095579 -0.249631 153 0 76
0.213010 0.090206 -0.141144 153 76 0
0.471137 -0.050411 -0.281691 153 0 76
-0.473989 0.004621 -0.340368 76 153 0
-0.493614 0.140320 -0.020875 255 0 0
0.483230 0.095370 0.143831 127 127 0
0.025627 0.112840 0.369517 255 0 0
-0.533529 0.035285 0.059069 127 0 127
0.455750 -0.032547 -0.257144 127 127 0
-0.199497 -0.012299 -0.240471 153 0 76
0.423690 0.064590 -0.296821 153 0 76
0.473186 0.140320 0.257080 255 0 0
-0.412559 0.140320 -0.158675 255 0 0
0.213010 0.089927 0.007517 153 76 0
0.086700 0.025820 0.244223 204 51 127
0.411955 0.112840 -0.134256 255 0 0
-0.077038 0.025820 0.282293 204 51 127
0.351023 0.112840 -0.246547 255 0 0
0.226170 0.002920 -0.151823 127 127 0
0.449503 -0.739285 0.326050 76 0 153
0.283920 0.112840 -0.017442 255 0 0
-0.361115 0.112840 0.288480 255 0 0
0.217590 0.060585 -0.214202 153 76 0
-0.233332 0.016660 -0.158468 204 51 127
-0.506049 -0.040397 -0.001462 127 0 127
0.431615 0.096307 0.178422 255 0 0
-0.244989 0.086440 0.353429 76 0 153
-0.174190 -0.024560 -0.265647 153 0 76
-0.181849 0.112840 0.196541 255 0 0
-0.159704 0.112840 0.202398 255 0 0
0.413910 0.014037 -0.341231 0 255 0
0.483230 -0.031469 -0.047024 127 127 0
-0.023008 0.140320 -0.030551 255 0 0
0.445580 -0.228971 -0.327203 153 0 76
0.206747 0.112840 0.228787 255 0 0
0.442048 -0.550417 -0.306250 153 0 76
-0.070162 -0.017421 0.354928 0 127 127
0.428340 -0.557177 0.319542 76 0 153
-0.336380 0.112840 -0.095409 255 0 0
-0.295369 0.058796 0.262502 76 0 153
-0.295369 0.096821 0.197640 76 0 153
-0.151450 0.002920 0.328198 0 127 127
0.108531 0.025820 -0.218630 204 51 127
0.085502 0.037691 -0.231311 153 0 76
-0.008209 0.106190 -0.341231 0 255 0
0.245070 0.043489 0.184561 153 76 0
0.428477 0.104683 -0.281691 153 0 76
0.289086 0.140320 0.051561 255 0 0
-0.055729 0.112840 0.016559 255 0 0
0.446305 0.095332 -0.341231 153 0 76
0.338478 0.112840 0.016308 255 0 0
0.483230 -0.050337 -0.077181 127 127 0
0.140866 0.140320 0.251606 255 0 0
0.184212 0.140320 -0.012415 255 0 0
0.245070 0.010824 0.255538 153 76 0
0.451170 -0.015672 -0.324162 153 0 76
-0.497785 -0.564235 -0.284834 76 153 0
0.405672 -0.549174 -0.274765 153 0 76
0.029269 0.140320 -0.145404 255 0 0
-0.244989 0.060825 -0.072962 76 0 153
0.298473 0.040611 0.354928 0 127 127
-0.533529 0.096418 -0.099409 127 0 127
-0.353380 0.140320 0.025885 255 0 0
-0.506049 0.048894 -0.062179 127 0 127
-0.149088 0.094790 -0.341231 0 255 0
0.036402 0.025820 0.137591 204 51 127
0.283293 0.140320 -0.102135 255 0 0
0.519870 0.131029 -0.093322 255 0 0
0.200032 -0.038411 -0.313751 0 255 0
-0.467104 0.112840 -0.204661 255 0 0
0.483230 -0.023714 -0.316105 153 0 76
0.154912 0.112840 -0.294531 255 0 0
-0.019744 0.112840 -0.374124 255 0 0
0.233237 -0.024560 0.261628 127 127 0
-0.048735 0.040728 -0.231311 153 0 76
-0.108894 0.002920 -0.296290 153 0 76
0.447080 -0.488721 0.325837 76 0 153
-0.017466 0.016660 0.127266 76 153 0
0.034491 0.016660 0.274838 204 51 127
-0.524369 0.000613 0.312860 127 0 127
0.464910 -0.006075 -0.289226 153 0 76
-0.500078 -0.529910 0.301063 153 76 0
0.289932 0.140320 0.156768 255 0 0
0.213010 0.068896 0.331568 153 76 0
0.483230 0.090899 0.291895 127 127 0
-0.515209 0.110646 0.313324 127 0 127
-0.392541 0.112840 0.259826 255 0 0
-0.393456 0.112840 -0.157755 255 0 0
0.217590 0.072464 0.240503 153 76 0
-0.474151 -0.040869 0.295388 153 76 0
-0.386053 0.085964 0.286228 255 0 0
-0.533529 0.110843 -0.285185 76 153 0
0.203850 0.020573 -0.248781 153 76 0
0.185205 0.058319 -0.231311 153 0 76
-0.080737 0.112840 0.183606 255 0 0
-0.522918 -0.061480 0.025749 127 0 127
-0.499660 -0.013497 -0.322911 0 255 0
-0.321734 0.112840 -0.073127 255 0 0
-0.464726 -0.496071 -0.265937 76 153 0
0.491831 -0.298167 0.332628 76 0 153
-0.389901 0.112840 -0.069569 255 0 0
0.423690 0.084483 0.354548 0 127 127
-0.304756 -0.001955 -0.313751 0 255 0
0.118074 0.074627 0.341188 76 0 153
-0.092604 0.016660 -0.209770 204 51 127
0.391565 0.140320 -0.264823 255 0 0
-0.271088 0.017592 0.354928 0 127 127
-0.281989 0.002920 -0.196285 76 0 153
-0.501730 0.140320 0.333986 255 0 0
-0.480790 -0.671047 0.319642 153 76 0
-0.135910 0.025820 -0.027139 204 51 127
-0.315642 0.112840 0.079565 255 0 0
0.213010 0.014289 -0.179764 153 76 0
0.060745 -0.037592 -0.341231 0 255 0
-0.391952 0.112840 -0.236284 255 0 0
-0.315578 0.140320 -0.021832 255 0 0
0.394709 0.112840 0.119731 255 0 0
-0.516830 0.140320 -0.087690 255 0 0
-0.476800 -0.422123 -0.274255 76 153 0
-0.444678 0.036474 0.327448 0 127 127
0.000702 0.112840 -0.065098 255 0 0
0.428327 0.140320 0.096489 255 0 0
0.105521 0.140320 0.144511 255 0 0
-0.022112 0.140320 -0.171522 255 0 0
0.324082 0.140320 -0.233380 255 0 0
-0.259660 0.112840 -0.121477 255 0 0
0.071718 0.112840 0.128117 255 0 0
0.135625 0.025820 -0.107183 204 51 127
-0.126451 -0.024560 -0.290580 153 0 76
-0.017308 -0.052492 0.330793 0 127 127
0.234188 0.044704 0.341188 0 127 127
-0.132050 0.016660 -0.228572 204 51 127
-0.459350 -0.482013 -0.286258 76 153 0
0.167986 0.133240 -0.368629 255 0 0
-0.295369 -0.008823 -0.030195 0 255 0
0.157517 0.140320 0.033054 255 0 0
-0.352257 0.051586 0.327448 0 127 127
-0.240818 0.112840 0.232469 255 0 0
-0.554098 -0.173522 -0.313398 76 153 0
0.200150 0.002920 0.297276 127 127 0
-0.161005 0.112840 -0.227828 255 0 0
-0.283944 0.078447 -0.341231 0 255 0
0.459032 0.112840 0.086129 255 0 0
0.434807 -0.303438 0.344125 76 0 153
0.078129 0.025820 -0.091994 204 51 127
-0.382690 0.093253 -0.341231 0 255 0
-0.248504 0.016660 0.080436 204 51 127
-0.487209 -0.631873 -0.304411 76 153 0
0.455750 -0.020042 0.114094 127 127 0
0.519870 0.114234 -0.196158 255 0 0
0.195145 0.016660 -0.164817 153 76 0
0.071408 0.016660 0.214128 204 51 127
-0.076109 0.140320 0.230843 255 0 0
-0.280368 0.140320 -0.151467 255 0 0
-0.130969 0.016660 0.259863 204 51 127
0.455750 0.061177 0.058676 127 127 0
-0.295259 0.112840 0.351920 0 127 127
-0.419849 0.112840 0.360467 255 0 0
-0.154600 0.140320 0.047685 255 0 0
0.173739 0.016660 -0.108554 204 51 127
-0.179098 0.025820 -0.185430 204 51 127
0.245070 0.028015 0.151999 153 76 0
0.483230 0.003762 0.301885 76 0 153
0.323416 0.140320 -0.328941 255 0 0
0.443376 0.098948 -0.157353 255 0 0
0.016666 0.112840 0.097233 255 0 0
-0.056025 -0.006240 0.366616 76 0 153
-0.206249 0.025820 0.271340 204 51 127
-0.043469 0.016422 0.164696 76 153 0
0.443785 0.112840 -0.067981 255 0 0
-0.165893 0.025820 -0.066598 204 51 127
0.085735 0.140320 -0.296044 255 0 0
0.157690 0.112840 0.170630 255 0 0
0.134427 0.112840 -0.084146 255 0 0
0.455750 0.079837 0.088713 127 127 0
-0.170241 0.025820 -0.045884 204 51 127
0.245070 0.039531 0.166184 153 76 0
0.497609 -0.130247 -0.359595 153 0 76
-0.496851 -0.171196 -0.342224 76 153 0
-0.464138 -0.690741 -0.283521 76 153 0
0.392228 0.140320 -0.176394 255 0 0
0.362219 0.102907 -0.272531 255 0 0
-0.029189 -0.010820 -0.187452 76 153 0
-0.228088 0.025820 -0.216975 204 51 127
-0.242929 -0.024560 0.001299 0 255 0
-0.191573 -0.026947 -0.341231 0 255 0
-0.491716 -0.389462 0.293132 153 76 0
-0.128905 -0.021917 0.327448 0 127 127
0.455936 0.099100 0.212194 127 127 0
0.047946 0.025820 -0.088110 204 51 127
0.384660 0.112840 0.288803 255 0 0
0.297836 0.008670 -0.341231 0 255 0
-0.431130 0.112840 0.255026 255 0 0
0.474532 0.101973 -0.341231 153 0 76
0.081738 0.024162 -0.267951 204 51 127
-0.101048 0.140320 -0.040477 255 0 0
0.203248 0.016660 0.328848 204 51 127
-0.267889 0.019663 0.243572 76 0 153
-0.424253 -0.015107 -0.329967 0 255 0
-0.499127 -0.542240 0.286072 153 76 0
-0.114947 0.112840 0.041649 255 0 0
0.424044 0.140320 -0.240049 255 0 0
0.218255 -0.024560 -0.152602 127 127 0
0.477024 -0.359590 0.337483 76 0 153
0.074458 0.025820 0.325879 204 51 127
0.104264 0.140320 -0.138202 255 0 0
0.460690 -0.267444 -0.298221 153 0 76
0.351002 0.140320 0.329108 255 0 0
0.194690 0.067066 0.171857 153 76 0
-0.483299 0.112840 0.275949 255 0 0
0.503333 -0.159915 0.344433 76 0 153
-0.295369 0.037265 -0.075581 76 0 153
-0.254149 0.024338 -0.230985 204 51 127
-0.234697 0.096502 0.368667 76 0 153
-0.514561 -0.103351 -0.354541 76 153 0
0.497822 0.112840 0.306943 255 0 0
-0.233600 0.025820 0.282931 204 51 127
-0.505142 -0.220552 -0.360697 76 153 0
-0.269343 0.053536 -0.341231 0 255 0
0.407086 -0.615960 -0.265617 153 0 76
-0.533529 -0.023719 -0.034418 127 0 127
0.346646 0.140320 -0.349349 255 0 0
-0.295369 -0.005462 -0.221377 0 255 0
0.194690 0.097351 0.176190 153 76 0
-0.043469 0.009209 -0.059402 76 153 0
0.241873 0.112840 0.138366 153 76 0
0.455750 -0.035841 -0.074259 127 127 0
0.128714 -0.024560 -0.287515 153 0 76
0.509516 0.134176 -0.078322 255 0 0
-0.533529 0.051466 0.298751 153 76 0
0.483230 0.036367 0.339716 76 0 153
0.461123 0.099100 -0.189490 255 0 0
-0.554140 -0.191305 0.331407 153 76 0
0.051480 0.025820 0.029635 204 51 127
-0.235041 0.016660 0.095566 204 51 127
-0.161187 0.016660 0.255274 204 51 127
-0.000132 0.002920 -0.131622 76 153 0
-0.506049 0.055032 0.049833 127 0 127
-0.295369 0.068208 0.292455 76 0 153
0.483230 0.092659 0.091808 127 127 0
0.073240 0.087361 -0.341231 0 255 0
0.235910 0.065836 0.339293 153 76 0
-0.172775 0.108260 0.348921 76 0 153
-0.005890 0.025820 -0.139434 204 51 127
0.036813 0.082766 0.368667 76 0 153
-0.453217 0.112840 0.040189 255 0 0
0.438309 -0.019588 0.336608 0 127 127
-0.295369 0.097732 0.220705 76 0 153
0.450323 0.140320 0.012454 255 0 0
-0.055689 0.112840 -0.098811 255 0 0
0.023278 0.002920 0.033691 76 153 0
-0.533529 -0.006622 -0.272934 127 0 127
-0.229838 0.016660 0.073220 204 51 127
0.447410 -0.565754 0.295973 76 0 153
0.441703 -0.386212 0.342913 76 0 153
0.275228 0.112840 -0.295975 255 0 0
0.203850 0.022229 0.077331 153 76 0
0.112748 -0.028471 -0.313751 0 255 0
0.138658 0.002920 0.328489 0 127 127
0.320185 0.112840 -0.326761 255 0 0
0.369287 0.112840 0.280458 255 0 0
0.245070 0.093010 -0.104385 153 76 0
0.158029 0.084729 -0.313751 0 255 0
0.391956 0.140320 -0.297345 255 0 0
-0.544892 -0.255611 -0.299978 76 153 0
0.366632 -0.011705 -0.314027 0 255 0
-0.267889 0.046366 -0.168472 76 0 153
-0.476948 -0.014746 0.354928 153 76 0
0.104337 0.112840 0.149542 255 0 0
-0.570168 0.113761 0.330359 255 0 0
0.133545 0.112840 0.127261 255 0 0
0.447224 -0.656833 0.285691 76 0 153
-0.278826 -0.024560 0.083923 0 255 0
0.115388 0.112840 0.222550 255 0 0
-0.102961 0.112840 -0.311465 255 0 0
-0.307103 0.140320 0.113664 255 0 0
-0.506049 0.010114 0.247134 127 0 127
-0.128720 0.140320 0.079742 255 0 0
0.368438 0.112840 0.033012 255 0 0
-0.498678 -0.548571 0.309447 153 76 0
-0.506049 0.012246 -0.121377 127 0 127
0.481069 0.140320 0.312944 255 0 0
-0.052040 0.002920 -0.045218 76 153 0
-0.209150 0.130082 -0.377871 255 0 0
0.217590 0.098138 -0.041284 153 76 0
-0.144142 0.112840 0.064657 255 0 0
0.130225 0.112840 -0.263268 255 0 0
0.235910 0.107878 -0.316852 153 76 0
0.426740 0.112840 -0.202356 255 0 0
0.264163 0.140320 -0.150989 255 0 0
-0.006848 0.025820 0.041847 204 51 127
0.464910 0.021706 -0.288286 127 127 0
-0.364377 0.131109 0.391187 255 0 0
-0.343086 0.112840 0.019796 255 0 0
0.213010 0.014867 0.200500 153 76 0
0.441247 0.112840 -0.216465 255 0 0
0.140717 0.046056 -0.313751 0 255 0
-0.134284 0.025820 0.112294 204 51 127
0.133480 0.025820 0.105361 204 51 127
-0.185619 0.025820 0.164726 204 51 127
0.457414 0.140320 -0.152709 255 0 0
-0.543640 0.140320 0.290347 255 0 0
0.455750 0.040999 0.285745 127 127 0
0.457302 -0.008162 0.228101 127 127 0
-0.062996 0.140320 -0.098026 255 0 0
0.136968 0.001049 -0.313751 0 255 0
0.245070 0.099587 -0.275685 153 76 0
0.434521 -0.404884 -0.325474 153 0 76
-0.459216 0.112840 0.164634 255 0 0
0.491758 0.112840 0.124827 255 0 0
-0.244989 0.035469 0.095861 76 0 153
0.348449 -0.006140 -0.333534 0 255 0
0.438841 -0.837115 -0.299613 153 0 76
0.245070 0.093181 -0.128045 153 76 0
0.228014 0.002920 0.209723 127 127 0
-0.418009 0.112840 0.013181 255 0 0
-0.508823 -0.429635 -0.273109 76 153 0
0.278119 0.003052 0.354928 0 127 127
-0.210581 0.112840 -0.138129 255 0 0
-0.267889 0.021055 -0.295235 76 0 153
-0.164816 0.016660 0.225969 204 51 127
-0.533529 0.004246 -0.324088 76 153 0
-0.088050 0.025820 -0.154858 204 51 127
-0.036181 0.112840 0.255565 255 0 0
-0.217187 0.016660 -0.247936 204 51 127
-0.073443 0.016660 -0.183290 204 51 127
0.483230 0.088641 -0.089947 127 127 0
-0.045641 0.025820 -0.025972 204 51 127
-0.398123 0.112840 -0.351989 255 0 0
-0.334892 0.051302 0.327448 0 127 127
-0.269823 0.092611 -0.313751 0 255 0
0.304134 0.112840 -0.019745 255 0 0
0.455750 -0.012497 -0.120728 127 127 0
-0.394873 0.091386 0.301140 255 0 0
0.190110 -0.001045 0.216213 127 127 0
-0.263309 0.070724 -0.077118 76 0 153
0.482574 0.140320 0.025177 255 0 0
0.456163 -0.390937 -0.279201 153 0 76
0.205228 0.090762 0.368667 76 0 153
-0.149872 0.140320 -0.337561 255 0 0
0.103014 0.002920 0.342026 0 127 127
0.451170 0.053948 -0.326532 153 0 76
0.040085 0.140320 0.195204 255 0 0
0.217590 0.044034 -0.090841 153 76 0
-0.088172 0.112840 0.037554 255 0 0
-0.397094 0.140320 0.185988 255 0 0
-0.448238 0.140320 0.030665 255 0 0
-0.499850 0.085360 0.227984 255 0 0
-0.102113 -0.046363 0.354928 0 127 127
-0.285517 0.002920 -0.156429 0 255 0
-0.388860 0.131102 0.391137 255 0 0
-0.496548 -0.615973 0.309058 153 76 0
-0.360034 -0.005330 -0.326778 0 255 0
0.483230 0.075319 -0.164823 127 127 0
0.446402 -0.797414 -0.289784 153 0 76
0.049272 0.112840 0.279812 255 0 0
-0.108107 0.016660 -0.256858 204 51 127
-0.253585 0.087991 -0.267951 76 0 153
-0.553337 0.112840 -0.031903 255 0 0
-0.043469 0.008751 0.213226 76 153 0
-0.263309 0.031390 0.119015 76 0 153
-0.549326 -0.154129 -0.361016 76 153 0
-0.296347 0.140320 0.034783 255 0 0
-0.261085 0.112840 0.259528 255 0 0
-0.535882 -0.266461 0.369357 153 76 0
0.456261 -0.815915 0.306802 76 0 153
0.239547 -0.024560 -0.098761 127 127 0
0.423690 -0.054878 -0.301971 153 0 76
-0.500890 0.112840 0.211967 255 0 0
0.194690 0.060316 -0.048510 153 76 0
-0.015807 -0.018757 -0.313751 153 0 76
-0.379742 0.112840 0.307673 255 0 0
-0.570168 0.115473 -0.012269 255 0 0
0.455750 -0.041541 0.001280 127 127 0
-0.231915 0.025820 0.252718 204 51 127
0.023156 0.025820 -0.014249 204 51 127
-0.061066 0.016660 -0.088981 76 153 0
-0.419951 0.007077 -0.313751 0 255 0
-0.075071 0.140320 -0.312879 255 0 0
0.073451 0.025820 -0.220427 204 51 127
-0.506049 0.021179 0.281885 127 0 127
0.209841 0.140320 0.366584 255 0 0
0.194690 0.050844 -0.076679 153 76 0
0.199388 0.112840 -0.301160 255 0 0
-0.472461 -0.653190 -0.267769 76 153 0
0.084270 0.039675 -0.249631 153 0 76
-0.073014 0.112840 -0.369674 255 0 0
-0.257002 0.003733 0.354928 76 0 153
0.180998 0.017569 0.354928 76 0 153
0.307308 0.112840 -0.305643 255 0 0
-0.265145 -0.024560 -0.068221 0 255 0
-0.186362 0.140320 0.356711 255 0 0
0.448132 -0.552066 -0.277505 153 0 76
0.081528 0.116827 -0.377871 255 0 0
0.436088 -0.821462 -0.323105 153 0 76
-0.058036 0.016660 0.133196 204 51 127
0.443904 -0.487895 -0.312246 153 0 76
-0.345621 0.112840 -0.219913 255 0 0
-0.496719 -0.632941 -0.283223 76 153 0
0.245070 0.037634 -0.144484 153 76 0
-0.208343 0.042154 0.341188 76 0 153
-0.092093 0.016660 0.234197 204 51 127
0.083406 0.016660 0.050069 204 51 127
-0.275189 0.112840 0.177694 76 0 153
-0.325904 0.112840 0.335656 0 127 127
0.216599 0.140320 0.134884 255 0 0
-0.295369 -0.018463 0.168732 0 255 0
-0.518592 0.112840 0.267082 255 0 0
0.245070 0.025237 -0.255404 153 76 0
0.483230 0.018346 -0.339002 153 0 76
-0.263309 0.094309 -0.057918 76 0 153
0.434184 0.112840 -0.167467 255 0 0
-0.225247 -0.030491 0.354928 0 127 127
0.433387 -0.435346 -0.319976 153 0 76
0.418283 -0.579234 0.318544 76 0 153
0.165090 0.027347 0.368667 76 0 153
-0.482514 -0.799807 0.310372 153 76 0
-0.425836 0.112840 0.204414 255 0 0
0.354823 0.112840 -0.201407 255 0 0
-0.006808 0.140320 -0.067587 255 0 0
0.106010 0.112840 -0.026898 255 0 0
0.019263 0.140320 -0.038303 255 0 0
-0.089690 0.025820 0.071372 204 51 127
0.468831 0.140320 0.149799 255 0 0
0.468758 -0.398341 -0.294854 153 0 76
0.142707 0.140320 0.288021 255 0 0
-0.140042 0.112840 -0.201736 255 0 0
-0.533529 0.088664 0.158403 127 0 127
-0.485645 0.096512 -0.341231 76 153 0
0.412797 -0.446827 -0.283411 153 0 76
-0.506049 0.022838 0.156158 127 0 127
0.464910 -0.027192 -0.308314 127 127 0
-0.519101 0.112840 -0.187813 127 0 127
0.217590 0.017654 0.269390 153 76 0
-0.191069 0.075792 -0.249631 153 0 76
-0.006829 -0.008977 0.137324 76 153 0
0.428113 0.140320 -0.165930 255 0 0
-0.201160 0.016660 0.109029 204 51 127
-0.282732 -0.024560 0.004826 0 255 0
0.049322 0.025820 -0.177500 204 51 127
-0.196917 0.016660 -0.152671 204 51 127
0.213010 0.039833 0.012841 153 76 0
0.468734 0.115333 -0.377871 255 0 0
0.153716 -0.024560 -0.259413 153 0 76
-0.181338 0.016660 0.179434 204 51 127
