ply
format ascii 1.0
element vertex 1286
property float x
property float y
property float z
property uchar red
property uchar green
property uchar blue
end_header
-0.120209 0.016660 0.053025 204 51 127
-0.097535 0.140320 0.034403 255 0 0
-0.373813 0.140320 0.105005 255 0 0
0.187288 -0.048696 -0.319955 0 255 0
0.464550 0.085360 -0.069541 127 127 0
-0.091882 0.016660 -0.225964 204 51 127
0.457321 0.112840 0.010303 127 127 0
0.474070 0.105497 0.316090 127 127 0
0.315492 0.009046 -0.341231 0 255 0
-0.295369 -0.020984 0.223124 0 255 0
0.356139 0.112840 -0.119583 255 0 0
-0.533529 -0.034654 -0.077777 127 0 127
-0.033145 0.016660 0.032397 204 51 127
-0.527169 -0.236238 0.316372 153 76 0
-0.087271 0.013312 0.368667 76 0 153
-0.303723 0.099147 -0.341231 0 255 0
-0.114800 0.112840 -0.078547 255 0 0
-0.302635 0.112840 0.216241 255 0 0
0.497984 0.112840 -0.216449 255 0 0
0.418977 -0.059814 0.354746 0 127 127
-0.121172 0.000756 0.327448 0 127 127
0.213381 -0.024560 -0.203288 127 127 0
-0.545434 -0.281530 -0.346711 76 153 0
-0.522045 -0.007362 0.169559 127 0 127
-0.236431 0.108260 0.352752 76 0 153
0.299984 0.112840 -0.163695 255 0 0
0.423690 0.070940 -0.333614 153 0 76
0.161423 0.002920 -0.261691 153 0 76
0.446743 -0.582621 -0.286658 153 0 76
0.150538 0.045820 -0.249631 153 0 76
-0.012608 0.108260 0.350919 255 0 0
-0.313066 0.140320 -0.353750 255 0 0
-0.264323 -0.001015 -0.341231 0 255 0
-0.246951 -0.024560 -0.045604 0 255 0
-0.120877 0.140320 0.373451 255 0 0
0.034011 0.016660 0.261686 204 51 127
0.427629 0.140320 0.205890 255 0 0
-0.553587 -0.158634 0.330638 153 76 0
0.417215 -0.510636 -0.265007 153 0 76
-0.533529 0.032831 0.318641 153 76 0
-0.067918 0.140320 0.081265 255 0 0
-0.280835 0.140320 0.120718 255 0 0
0.483230 0.095915 0.070558 127 127 0
0.279150 0.112840 0.038990 255 0 0
0.154674 0.112840 -0.171348 255 0 0
-0.460148 -0.473251 -0.277064 76 153 0
-0.244989 0.097873 -0.053481 76 0 153
-0.229072 0.112840 0.220804 255 0 0
0.206247 0.112840 0.064897 153 76 0
-0.484033 -0.310485 0.317474 153 76 0
0.237307 -0.024560 0.221832 127 127 0
0.153620 0.018733 -0.313751 0 255 0
0.483230 0.059608 -0.063841 127 127 0
-0.481458 0.131244 -0.372938 255 0 0
0.127545 0.112840 0.048636 255 0 0
0.464922 -0.008157 -0.152489 127 127 0
-0.361237 0.140320 0.323131 255 0 0
-0.536145 -0.323424 -0.303124 76 153 0
-0.302211 0.140320 0.286724 255 0 0
-0.313566 0.112840 0.378436 255 0 0
0.126945 0.016660 -0.231494 153 0 76
-0.218303 0.140320 -0.322438 255 0 0
0.417630 0.112840 0.064613 255 0 0
-0.569716 0.112840 -0.127423 255 0 0
-0.533529 0.004240 -0.302809 76 153 0
-0.255259 0.112840 0.038369 255 0 0
-0.551751 -0.235887 -0.320101 76 153 0
-0.504930 0.073699 -0.341231 76 153 0
-0.263309 0.041376 -0.067109 76 0 153
0.112263 0.025820 0.069437 204 51 127
-0.524430 -0.088401 -0.349580 76 153 0
-0.218974 0.112840 0.295776 255 0 0
0.060074 0.112840 0.257192 255 0 0
0.013555 0.016660 -0.008811 76 153 0
0.245070 -0.012058 -0.184652 127 127 0
-0.249089 0.002920 -0.177933 0 255 0
0.426233 -0.077206 0.331185 76 0 153
-0.244989 0.086978 0.286145 76 0 153
-0.265200 0.009466 -0.313751 0 255 0
-0.533529 0.075669 0.042387 127 0 127
-0.569643 0.131089 -0.173594 255 0 0
-0.062918 0.065515 -0.231311 153 0 76
0.038319 0.140320 0.194921 255 0 0
-0.466980 0.060811 -0.341231 0 255 0
0.455750 -0.032708 0.109006 127 127 0
0.333753 0.112840 -0.081903 255 0 0
0.065604 0.025820 -0.206039 204 51 127
-0.134771 0.140320 -0.202332 255 0 0
0.410735 0.112840 -0.011744 255 0 0
0.432641 -0.579691 -0.263751 153 0 76
0.509894 0.133801 -0.088982 255 0 0
0.200163 0.025820 0.030109 153 76 0
-0.208732 0.087360 -0.231311 153 0 76
0.190110 -0.022707 -0.087844 127 127 0
-0.259127 -0.024560 0.123669 0 255 0
-0.193827 0.093647 -0.249631 153 0 76
-0.252127 0.016660 -0.205022 204 51 127
-0.546308 -0.101476 -0.332025 76 153 0
0.483230 0.057855 -0.165471 127 127 0
0.040570 0.112840 -0.252056 255 0 0
-0.242165 0.140320 0.288863 255 0 0
-0.237483 0.140320 -0.105507 255 0 0
0.407766 -0.498319 0.318207 76 0 153
-0.263309 0.021428 0.232346 76 0 153
-0.481061 0.085920 -0.332071 76 153 0
0.127848 0.112840 -0.375698 255 0 0
0.484495 0.140320 -0.328537 255 0 0
-0.140152 0.072152 0.368667 76 0 153
-0.205808 0.016660 0.004282 204 51 127
-0.338893 0.140320 0.253243 255 0 0
-0.473818 -0.420068 -0.274570 76 153 0
-0.533529 0.070146 -0.262568 127 0 127
-0.229812 0.112840 -0.339331 0 255 0
0.070246 0.112840 0.095669 255 0 0
-0.569614 0.112840 0.031892 255 0 0
-0.374175 0.085360 -0.297214 255 0 0
-0.488214 -0.282854 0.325054 153 76 0
-0.407008 0.054027 0.327448 0 127 127
0.228804 0.002920 -0.019294 153 76 0
-0.249053 0.016660 0.078347 204 51 127
-0.234754 0.112840 -0.039092 76 0 153
-0.295369 0.058336 0.100940 76 0 153
-0.128491 0.112840 0.054700 255 0 0
0.031808 0.112840 0.014425 255 0 0
0.217590 0.074212 -0.160533 153 76 0
-0.532215 0.140320 0.340497 255 0 0
-0.097139 -0.046669 -0.341231 0 255 0
-0.256964 0.112840 0.262236 255 0 0
-0.285523 0.112840 0.310227 255 0 0
-0.436596 0.064403 -0.313751 0 255 0
0.329048 0.130952 -0.375575 255 0 0
0.236171 0.112840 0.352077 255 0 0
0.025095 0.080637 -0.341231 0 255 0
-0.259032 0.112840 0.153076 255 0 0
-0.356119 0.112840 -0.061606 255 0 0
0.163484 0.140320 0.229618 255 0 0
0.466224 0.031113 -0.341231 153 0 76
0.484547 -0.328519 -0.340751 153 0 76
-0.073410 0.132085 -0.370504 255 0 0
-0.086810 -0.017754 -0.341231 0 255 0
-0.503953 -0.815649 0.306754 153 76 0
0.305443 0.140320 -0.263344 255 0 0
0.483230 -0.007040 0.278541 127 127 0
0.086207 0.140320 -0.008663 255 0 0
-0.447081 0.047206 -0.341231 0 255 0
0.004184 0.112840 -0.138956 255 0 0
-0.244989 0.036887 -0.139584 204 51 127
0.434576 0.063037 0.354928 76 0 153
-0.413818 0.140320 0.232098 255 0 0
-0.082459 0.099459 0.341188 76 0 153
0.151083 0.112840 0.073712 255 0 0
0.439039 -0.275356 0.351813 76 0 153
0.361467 0.140320 -0.275983 255 0 0
-0.342856 0.140320 0.167491 255 0 0
0.185269 0.112840 -0.305809 255 0 0
-0.533529 0.012844 -0.027857 127 0 127
0.487792 0.140320 0.210969 255 0 0
-0.413705 0.140320 -0.342384 255 0 0
0.207026 0.108260 0.242615 255 0 0
-0.068629 -0.038705 0.327448 0 127 127
0.439575 0.112840 -0.113650 255 0 0
-0.295369 0.066888 -0.285625 76 0 153
-0.497719 0.112840 -0.232873 255 0 0
0.170860 0.025820 0.114416 204 51 127
0.455750 0.072750 0.019117 127 127 0
-0.533529 -0.038814 0.346765 153 76 0
-0.140372 0.140320 -0.079489 255 0 0
0.412936 0.095705 -0.341231 153 0 76
0.437245 0.000148 0.354928 76 0 153
-0.010769 0.112840 0.078269 255 0 0
0.182518 -0.051324 0.340955 0 127 127
0.245070 0.095213 -0.032491 153 76 0
0.466527 -0.027018 0.264094 127 127 0
0.428766 -0.780876 0.319958 76 0 153
0.519870 0.131119 -0.203891 255 0 0
-0.479534 -0.339762 -0.294297 76 153 0
0.443209 0.140320 -0.254077 255 0 0
-0.533529 0.059564 0.074513 127 0 127
0.352746 0.097023 0.341188 0 127 127
0.011588 0.002920 0.238069 76 153 0
-0.499698 -0.692042 0.308105 153 76 0
-0.490329 0.098666 -0.281691 76 153 0
0.217590 0.077247 -0.201710 153 76 0
0.007599 0.140320 0.376164 255 0 0
-0.452964 0.140320 0.213363 255 0 0
-0.515209 0.022936 -0.301479 76 153 0
-0.334690 0.112840 -0.150457 255 0 0
-0.488837 0.140320 0.241404 255 0 0
-0.022069 0.112840 0.259764 255 0 0
-0.267889 0.065318 -0.130162 76 0 153
-0.295369 0.036265 -0.043351 76 0 153
-0.491964 -0.043802 -0.341231 76 153 0
-0.295369 0.103436 -0.293592 76 0 153
0.196380 0.108260 -0.109401 255 0 0
-0.141014 0.112840 0.322449 255 0 0
-0.295369 -0.013664 0.023616 0 255 0
-0.515716 -0.009815 -0.146292 127 0 127
-0.332351 -0.011832 0.329201 0 127 127
0.213010 0.069497 0.243419 153 76 0
-0.436982 0.131023 -0.374256 255 0 0
0.324399 0.112840 -0.321521 255 0 0
0.383426 0.140320 -0.326989 255 0 0
0.213010 0.074960 -0.082277 153 76 0
-0.026547 -0.052242 -0.332314 0 255 0
0.223784 -0.033023 -0.313751 0 255 0
-0.034994 -0.014179 -0.313751 0 255 0
0.423201 0.112840 -0.146472 255 0 0
0.118383 0.071186 -0.249631 153 0 76
0.122269 0.140320 0.258669 255 0 0
-0.533529 0.056189 0.178064 127 0 127
0.018735 0.112840 -0.360086 255 0 0
0.194690 0.027505 -0.134768 153 76 0
-0.028425 0.112840 -0.330839 0 255 0
0.048453 0.016660 -0.145506 204 51 127
-0.407287 0.113330 -0.377871 255 0 0
-0.524369 0.037137 0.296479 127 0 127
-0.186832 0.112840 -0.244740 255 0 0
0.217590 0.095939 0.227116 153 76 0
0.082888 0.112840 -0.113314 255 0 0
0.205929 0.002920 -0.177658 127 127 0
0.230206 0.002920 -0.298619 127 127 0
0.245070 0.074212 -0.233164 153 76 0
-0.533529 0.015038 -0.108013 127 0 127
0.487182 -0.183687 -0.361872 153 0 76
-0.511405 -0.173515 0.318367 153 76 0
-0.295369 -0.019368 0.059494 0 255 0
-0.009527 0.074603 -0.231311 153 0 76
-0.052465 0.026629 0.368667 76 0 153
-0.137232 0.002920 -0.271001 153 0 76
0.190110 -0.012466 -0.116877 127 127 0
0.170256 0.112840 -0.270945 255 0 0
-0.314553 0.104511 0.327448 0 127 127
-0.281276 -0.005753 0.327448 0 255 0
-0.268895 0.112840 -0.328760 0 255 0
0.496143 -0.275937 -0.313061 153 0 76
-0.505744 -0.132168 -0.299500 76 153 0
0.446408 -0.169146 0.360954 76 0 153
-0.406345 0.140320 -0.075834 255 0 0
0.245070 0.006198 0.313177 127 127 0
0.200803 0.016660 -0.079678 153 76 0
-0.295369 0.070543 0.064390 76 0 153
0.502786 0.112840 0.351673 255 0 0
0.067312 0.013844 -0.341231 0 255 0
-0.184567 0.140320 0.013809 255 0 0
0.446887 -0.648355 0.291372 76 0 153
0.043457 0.112840 0.289749 255 0 0
-0.497631 -0.199015 -0.312409 76 153 0
-0.457949 -0.536421 -0.263938 76 153 0
0.156238 0.112840 -0.209381 255 0 0
0.455750 0.043396 0.279171 127 127 0
-0.205095 0.025820 0.033075 204 51 127
0.448414 0.112840 -0.296397 255 0 0
-0.198149 0.040956 -0.341231 0 255 0
-0.088655 0.140320 -0.208799 255 0 0
-0.037032 0.140320 -0.317050 255 0 0
0.051741 0.025820 0.217786 204 51 127
-0.525057 -0.046642 0.072575 127 0 127
-0.506049 0.047275 -0.041989 127 0 127
-0.150874 0.140320 0.039535 255 0 0
-0.262083 0.131497 0.385679 255 0 0
0.309565 0.140320 0.202860 255 0 0
-0.295369 0.067449 -0.039166 76 0 153
-0.141811 0.140320 -0.118002 255 0 0
-0.441649 0.044226 0.327448 0 127 127
-0.533529 -0.002482 -0.163866 127 0 127
-0.295369 0.022309 -0.297484 76 0 153
0.450771 -0.707194 -0.284045 153 0 76
-0.524167 0.140320 0.024404 255 0 0
0.483230 0.018851 0.229414 127 127 0
-0.117271 0.025820 -0.115967 204 51 127
0.143593 0.016660 0.157985 204 51 127
0.460173 -0.446429 -0.274244 153 0 76
-0.287921 0.112840 -0.041473 76 0 153
-0.545807 0.140320 -0.273975 255 0 0
-0.244989 0.005535 0.009117 0 255 0
0.213010 0.042241 -0.185791 153 76 0
-0.324928 0.140320 -0.132555 255 0 0
0.216145 0.140320 0.237505 255 0 0
-0.277085 0.002920 0.296366 76 0 153
0.405590 -0.568277 0.295769 76 0 153
0.236798 -0.010180 -0.313751 0 255 0
-0.515209 0.095477 -0.062356 127 0 127
0.483230 0.009743 -0.133285 127 127 0
-0.481784 0.095290 -0.190614 255 0 0
-0.181451 0.025820 -0.177228 204 51 127
0.461362 -0.061127 -0.341231 153 0 76
0.424090 -0.533307 0.321167 76 0 153
-0.406061 0.112840 0.372377 255 0 0
0.455750 0.034281 0.105678 127 127 0
-0.244989 0.047824 0.031618 76 0 153
-0.477397 -0.751891 -0.314043 76 153 0
-0.295369 0.104735 0.095863 255 0 0
-0.010248 0.025820 0.337902 204 51 127
0.468681 0.112840 0.272007 255 0 0
-0.277541 0.140320 0.161186 255 0 0
-0.129942 0.140320 0.216308 255 0 0
-0.248354 0.140320 0.318519 255 0 0
-0.260572 0.113371 -0.377871 255 0 0
-0.203637 0.002920 0.347297 0 127 127
0.197716 -0.005075 0.368667 76 0 153
0.073474 0.140320 0.197534 255 0 0
0.012166 -0.024560 -0.267302 153 0 76
0.011234 0.140320 0.258443 255 0 0
-0.244989 0.043158 -0.087540 76 0 153
0.367571 0.112840 -0.148225 255 0 0
-0.511265 -0.441526 0.286160 153 76 0
-0.372114 0.140320 -0.230853 255 0 0
-0.532441 -0.248087 -0.358185 76 153 0
-0.267889 0.030359 -0.190637 76 0 153
-0.245269 0.140320 -0.313213 255 0 0
-0.201666 0.140320 0.223487 255 0 0
-0.210207 0.140320 0.355194 255 0 0
-0.506049 -0.007408 -0.014315 127 0 127
-0.264785 0.140320 -0.167374 255 0 0
-0.025223 -0.010820 0.275139 76 153 0
-0.520986 -0.388751 -0.290214 76 153 0
0.322265 0.112840 0.169475 255 0 0
-0.481334 -0.793293 -0.304615 76 153 0
-0.387286 0.112840 -0.360538 255 0 0
0.455750 0.054445 0.246265 127 127 0
0.194690 0.046134 0.044000 153 76 0
-0.533529 -0.040990 -0.058073 127 0 127
0.097228 0.112840 0.005029 255 0 0
-0.560954 0.112840 -0.363189 255 0 0
0.423690 0.087737 -0.295888 153 0 76
-0.221246 0.140320 -0.285344 255 0 0
-0.501684 0.140320 -0.312971 255 0 0
-0.049707 0.112840 0.354741 255 0 0
-0.017822 0.016660 0.254950 204 51 127
-0.034598 -0.010820 -0.197158 76 153 0
0.190110 -0.008649 -0.280376 127 127 0
0.447642 -0.561166 0.298573 76 0 153
0.401270 0.140320 -0.064803 255 0 0
-0.506049 0.073146 -0.267331 127 0 127
-0.487885 0.061926 -0.281691 76 153 0
-0.281576 0.002920 -0.220072 0 255 0
-0.533529 -0.010936 -0.039385 127 0 127
-0.490411 0.140320 0.103770 255 0 0
-0.485357 -0.104457 -0.309304 76 153 0
0.011404 0.002920 0.168097 76 153 0
-0.533529 0.103970 0.334960 153 76 0
0.213010 0.075545 -0.242481 153 76 0
0.273603 0.112840 0.338674 255 0 0
-0.063090 -0.000147 0.327448 76 153 0
-0.480734 -0.571534 -0.305118 76 153 0
0.194690 0.100772 0.285796 153 76 0
0.213010 0.047682 0.299400 153 76 0
-0.259871 -0.024560 0.203034 0 255 0
0.409543 0.140320 -0.266074 255 0 0
0.455750 -0.012864 0.030950 127 127 0
-0.295369 0.073366 -0.179216 76 0 153
-0.006829 0.014036 -0.079777 76 153 0
0.437494 0.085360 0.179675 255 0 0
-0.517421 -0.316960 -0.345458 76 153 0
-0.040098 0.112840 0.294898 255 0 0
0.313684 0.140320 0.364211 255 0 0
-0.080109 0.010514 -0.251321 204 51 127
0.202149 0.140320 0.269800 255 0 0
-0.538502 -0.125371 0.311899 153 76 0
-0.069102 0.025820 0.329833 204 51 127
0.046617 0.016660 0.286705 204 51 127
-0.190806 0.002920 -0.253608 153 0 76
0.054886 0.112840 -0.305406 255 0 0
-0.211942 0.112840 -0.376019 255 0 0
-0.173329 -0.044652 0.327448 0 127 127
-0.295369 0.051430 0.057930 76 0 153
0.230742 0.140320 -0.114084 255 0 0
-0.037114 -0.016571 0.327448 0 127 127
0.217590 0.094678 0.324041 153 76 0
0.451170 0.001603 -0.323355 0 255 0
-0.454567 0.074429 -0.313751 0 255 0
-0.239167 0.140320 0.070935 255 0 0
-0.084873 -0.034308 0.354928 0 127 127
0.333886 0.140320 -0.043844 255 0 0
0.089931 0.025820 0.112433 204 51 127
0.300033 0.140320 0.086959 255 0 0
-0.267889 0.085646 -0.036340 76 0 153
-0.295369 0.093774 0.175041 76 0 153
-0.382244 0.112840 0.027468 255 0 0
0.441334 -0.131270 0.355978 76 0 153
-0.196660 0.135437 0.380079 255 0 0
-0.375278 0.140320 0.290122 255 0 0
-0.244989 0.084198 -0.122409 76 0 153
0.245070 0.036744 -0.172188 153 76 0
-0.157430 0.025820 0.110923 204 51 127
0.061866 0.016660 0.251551 204 51 127
0.084694 -0.012026 0.327448 0 127 127
-0.497957 -0.560850 0.315311 153 76 0
-0.043469 0.008140 0.053549 76 153 0
0.425988 -0.639523 -0.266625 153 0 76
0.010754 0.073469 -0.249631 153 0 76
-0.506049 -0.029611 -0.049136 127 0 127
-0.468638 -0.058676 -0.327111 0 255 0
0.028000 0.025820 -0.041666 204 51 127
-0.403561 0.140320 -0.305135 255 0 0
0.498155 0.112840 0.322500 255 0 0
0.056991 -0.055089 0.354928 0 127 127
-0.008698 0.016660 0.085013 76 153 0
0.232089 0.140320 0.082256 255 0 0
-0.498518 -0.550826 -0.279456 76 153 0
0.190110 -0.010407 0.285068 127 127 0
-0.388210 0.140320 -0.213320 255 0 0
-0.267889 0.040630 0.269092 76 0 153
0.108141 0.140320 0.293899 255 0 0
0.217590 0.109399 0.306014 153 76 0
0.263955 0.112840 -0.204054 255 0 0
0.045337 0.140320 -0.250635 255 0 0
-0.240409 0.000453 -0.023802 76 0 153
-0.257470 -0.024560 0.014925 0 255 0
-0.006829 0.000442 -0.147065 76 153 0
-0.045560 0.015253 -0.341231 0 255 0
0.162311 0.054010 0.368667 76 0 153
0.175810 0.025820 0.258664 204 51 127
-0.098091 0.027608 -0.341231 0 255 0
-0.531453 0.140320 -0.188470 255 0 0
0.085908 -0.053748 0.330736 0 127 127
0.092589 0.140320 0.131667 255 0 0
0.444509 -0.368253 -0.333071 153 0 76
0.498675 0.112840 0.121630 255 0 0
-0.516122 0.140320 -0.348548 255 0 0
0.183723 0.016660 0.301819 153 76 0
-0.148338 0.042112 -0.313751 0 255 0
0.107128 -0.040338 0.354928 0 127 127
-0.221390 0.078231 -0.341231 0 255 0
0.201430 0.061895 0.368667 76 0 153
0.072744 0.140320 0.038664 255 0 0
0.519215 0.131071 0.258002 255 0 0
-0.126746 0.112840 -0.041834 255 0 0
0.326960 0.140320 0.286842 255 0 0
0.463120 0.085360 -0.103785 127 127 0
0.090128 0.112840 0.041223 255 0 0
-0.533529 0.001651 0.345482 153 76 0
-0.244989 0.096338 -0.007757 76 0 153
0.458322 0.140320 -0.069492 255 0 0
0.483230 0.070452 0.003324 127 127 0
0.388084 0.061022 -0.341231 0 255 0
0.415102 0.140320 0.170202 255 0 0
0.077156 0.112840 0.293761 255 0 0
-0.233066 -0.051191 0.350779 0 127 127
0.180734 0.112840 0.231160 255 0 0
0.092990 0.112840 -0.293605 255 0 0
0.462498 0.088490 0.354928 76 0 153
0.213010 0.037100 -0.115512 153 76 0
0.245070 -0.017026 -0.126401 127 127 0
-0.488691 -0.789150 0.333568 153 76 0
-0.506463 0.099100 -0.130247 127 0 127
0.483230 0.089832 -0.340020 153 0 76
0.407569 -0.511869 -0.309468 153 0 76
-0.533529 0.028659 0.059621 127 0 127
0.463071 0.058550 0.295388 76 0 153
-0.263221 0.027404 0.352457 76 0 153
-0.526854 0.112840 -0.346335 76 153 0
0.305675 0.099100 -0.320818 0 255 0
-0.488105 0.112840 0.118107 255 0 0
-0.077931 -0.000780 0.354928 76 0 153
-0.473989 0.045383 -0.302837 76 153 0
0.443711 -0.145309 -0.313937 153 0 76
0.245070 0.049302 0.234832 153 76 0
-0.299221 0.043058 0.354928 0 127 127
-0.080287 0.112840 -0.291464 255 0 0
0.414530 0.096515 0.204199 255 0 0
-0.278423 0.001137 0.354928 0 127 127
0.047540 0.140320 -0.311241 255 0 0
-0.533529 0.093510 0.183680 127 0 127
-0.000131 -0.054722 0.345378 0 127 127
-0.461637 -0.669376 0.301436 153 76 0
0.301602 0.112840 -0.304121 255 0 0
0.417393 0.112840 -0.107270 255 0 0
-0.059545 0.140320 -0.049537 255 0 0
0.104414 0.016660 -0.096492 204 51 127
0.455750 0.032683 -0.255138 127 127 0
0.388079 0.140320 0.014658 255 0 0
-0.359525 0.112840 -0.021569 255 0 0
-0.506049 0.012526 -0.078797 127 0 127
0.426508 0.032896 -0.281691 153 0 76
-0.012490 0.039919 -0.231311 153 0 76
-0.326867 0.030683 -0.341231 0 255 0
-0.537793 0.140320 -0.231294 255 0 0
-0.241539 0.002920 0.093755 0 255 0
0.464910 -0.000056 0.295476 127 127 0
-0.244989 0.079353 -0.190202 76 0 153
0.194690 0.045661 -0.126325 153 76 0
0.039415 0.140320 0.053774 255 0 0
0.217590 0.039323 0.177211 153 76 0
-0.465007 -0.615506 -0.304246 76 153 0
-0.394667 0.085798 0.341188 0 127 127
-0.290441 0.140320 -0.321564 255 0 0
0.072082 0.112840 -0.027194 255 0 0
0.343790 0.112840 0.133641 255 0 0
-0.114436 0.010027 0.368667 76 0 153
0.406830 0.016038 0.327448 0 127 127
-0.506945 -0.756150 0.310576 153 76 0
-0.263309 0.043573 -0.097597 76 0 153
-0.421810 0.032051 -0.313751 0 255 0
0.302292 0.112840 -0.202127 255 0 0
-0.240224 0.076850 0.368667 76 0 153
-0.050189 0.025820 0.083375 76 153 0
-0.477373 -0.036288 0.295388 153 76 0
0.475139 -0.281051 0.309884 76 0 153
-0.230309 0.016660 0.057241 204 51 127
-0.167066 -0.014525 0.366717 76 0 153
0.428760 -0.637340 0.318250 76 0 153
0.464064 0.091099 0.178422 255 0 0
-0.570168 0.126662 0.293377 255 0 0
-0.004506 0.112840 0.167543 255 0 0
-0.115565 0.016660 -0.099732 204 51 127
-0.533529 0.078189 -0.237952 127 0 127
0.455750 0.047046 0.146808 127 127 0
0.019544 0.016660 -0.243843 204 51 127
-0.146752 0.016660 -0.136964 204 51 127
0.213010 0.092533 0.045860 153 76 0
-0.533529 0.082935 0.018914 127 0 127
-0.514553 -0.012159 0.152811 127 0 127
-0.097650 0.112840 0.103463 255 0 0
0.010162 0.002920 0.019926 76 153 0
0.517342 0.112840 -0.072728 255 0 0
-0.499799 0.112840 -0.052978 127 0 127
-0.466284 -0.652240 -0.305007 76 153 0
-0.039217 0.025820 0.228151 204 51 127
0.291445 0.112840 0.369422 255 0 0
0.217590 0.095781 -0.122349 153 76 0
0.142691 0.025820 -0.004184 204 51 127
0.245070 -0.003101 0.272434 127 127 0
0.376087 0.112840 0.217354 255 0 0
0.212782 0.002920 0.260702 127 127 0
-0.412676 -0.010150 -0.313968 0 255 0
-0.193671 0.112840 0.068695 255 0 0
0.066448 0.058016 0.368667 76 0 153
-0.517174 -0.351291 -0.285445 76 153 0
0.446884 -0.129041 -0.359455 153 0 76
-0.247047 0.140320 0.178018 255 0 0
0.464910 0.071793 -0.306699 127 127 0
-0.377007 0.112840 -0.059928 255 0 0
-0.071619 0.025820 -0.113192 204 51 127
0.483230 -0.069748 0.308181 76 0 153
0.455750 0.044929 0.067068 127 127 0
0.045156 0.045811 -0.249631 153 0 76
0.464655 -0.004369 0.206033 127 127 0
-0.127659 0.112840 -0.177134 255 0 0
0.483230 0.049996 0.256447 127 127 0
0.001181 0.036551 -0.341231 0 255 0
0.123688 0.112840 -0.064840 255 0 0
-0.533529 0.011772 -0.192269 127 0 127
0.353176 0.069854 0.327448 0 127 127
0.005934 0.134525 -0.367168 255 0 0
-0.515209 0.093924 -0.269370 127 0 127
0.134323 0.025820 0.299370 204 51 127
-0.552495 0.140320 -0.183816 255 0 0
0.136937 0.025820 -0.209060 204 51 127
0.037789 0.025820 -0.129522 204 51 127
-0.302547 0.140320 0.341792 255 0 0
-0.403773 0.061253 0.354928 0 127 127
-0.171811 -0.063269 -0.334759 0 255 0
-0.240409 -0.001467 0.290469 0 255 0
-0.486329 -0.308124 -0.347633 76 153 0
0.466766 -0.076760 -0.284069 153 0 76
0.272402 0.002200 -0.313751 0 255 0
0.491895 0.140320 0.098506 255 0 0
0.503196 -0.157038 0.337633 76 0 153
0.447978 -0.032935 0.295388 127 127 0
-0.198304 0.016660 -0.203421 204 51 127
-0.469489 -0.727865 0.307629 153 76 0
0.213010 0.089082 0.116640 153 76 0
-0.063591 0.140320 0.160192 255 0 0
-0.053274 -0.024560 -0.258867 153 0 76
-0.506049 0.067841 -0.103963 127 0 127
0.015332 0.016660 -0.195232 76 153 0
0.347773 0.112840 0.194697 255 0 0
-0.295369 -0.006780 -0.081353 0 255 0
0.407279 -0.003836 -0.313751 0 255 0
-0.472579 -0.384135 0.321232 153 76 0
0.483230 -0.058546 -0.299859 153 0 76
-0.270496 0.002920 -0.007985 76 0 153
-0.329246 0.140320 -0.179390 255 0 0
0.251548 0.073082 0.354928 0 127 127
0.245070 0.016634 -0.154723 127 127 0
0.483230 0.089442 0.009476 127 127 0
-0.082535 0.040091 -0.249631 153 0 76
0.467498 -0.016850 -0.235476 127 127 0
-0.488087 -0.114820 0.327085 153 76 0
-0.301392 0.041824 0.327448 0 127 127
-0.528013 0.112840 0.246291 127 0 127
-0.053332 0.112840 -0.357982 255 0 0
-0.381083 0.100787 -0.313751 0 255 0
-0.506049 0.000064 0.066360 127 0 127
0.432625 -0.684145 0.284705 76 0 153
-0.506049 0.069911 0.184832 127 0 127
-0.161203 0.025820 0.143090 204 51 127
0.077406 0.140320 -0.087880 255 0 0
0.456219 -0.053227 0.354928 76 0 153
-0.057847 -0.030618 -0.313751 0 255 0
-0.204901 0.051841 0.368667 76 0 153
0.102954 0.014019 -0.341231 0 255 0
-0.483444 -0.725362 -0.310697 76 153 0
0.076940 0.002920 -0.257822 153 0 76
-0.171495 0.112840 0.146997 255 0 0
-0.007694 0.073814 -0.341231 0 255 0
0.415147 0.104702 0.233381 255 0 0
0.376330 0.093267 -0.292346 255 0 0
-0.164106 0.112840 -0.203814 255 0 0
-0.359751 0.140320 -0.289009 255 0 0
0.407116 0.072659 0.327448 0 127 127
-0.301297 0.006493 -0.341231 0 255 0
-0.473989 0.005344 0.320529 0 127 127
-0.426886 0.112840 -0.347769 255 0 0
-0.261455 0.002920 0.053621 0 255 0
-0.254149 0.025154 0.214437 204 51 127
0.464696 -0.419765 0.303446 76 0 153
0.351958 0.112840 -0.265481 255 0 0
0.483230 0.000605 0.028344 127 127 0
0.175855 0.016660 0.164934 204 51 127
-0.523380 0.140320 0.323679 255 0 0
0.190651 0.016660 0.338317 76 0 153
0.383303 0.018655 -0.341231 0 255 0
-0.064797 0.112840 -0.168967 255 0 0
-0.267889 0.020769 0.065395 76 0 153
0.152876 -0.012330 -0.313751 153 0 76
0.483230 -0.041620 0.312269 76 0 153
-0.125435 -0.034125 0.354928 0 127 127
0.464910 0.098396 0.032125 127 127 0
-0.267889 0.053659 -0.257438 76 0 153
0.313847 0.112840 0.152925 255 0 0
-0.022385 -0.010820 0.145265 76 153 0
0.498419 -0.261480 0.347616 76 0 153
-0.207831 0.016660 -0.251048 204 51 127
0.126980 0.016660 0.009966 204 51 127
-0.554178 -0.184847 0.358475 153 76 0
0.437181 -0.004397 -0.281691 153 0 76
-0.167326 0.025820 -0.206161 204 51 127
0.047146 0.112840 -0.137921 255 0 0
0.517444 0.130952 0.316242 255 0 0
0.451170 0.011942 0.339210 0 127 127
-0.374132 0.140320 0.085125 255 0 0
0.455750 -0.056384 -0.029169 127 127 0
0.473470 0.112840 0.222570 127 127 0
0.047787 0.016660 0.165665 204 51 127
-0.442753 0.140320 0.000727 255 0 0
-0.403643 0.096487 -0.272531 255 0 0
-0.139452 0.002920 0.341957 0 127 127
0.263010 0.140320 -0.345084 255 0 0
-0.383575 0.140320 0.002434 255 0 0
-0.537544 -0.178803 -0.361838 76 153 0
-0.513614 -0.131645 -0.359721 76 153 0
-0.231124 -0.029109 -0.341231 0 255 0
-0.552036 -0.131890 -0.320378 76 153 0
-0.061573 0.002920 0.193481 76 153 0
-0.119357 0.014978 -0.313751 0 255 0
-0.280597 0.066537 0.341188 76 0 153
0.118330 0.063606 -0.313751 0 255 0
-0.529689 0.131140 -0.377723 255 0 0
-0.322877 0.045941 -0.313751 0 255 0
-0.258920 0.102662 0.347682 76 0 153
0.067256 0.025820 0.017557 204 51 127
0.099447 0.016660 0.023489 204 51 127
0.457339 -0.464958 0.301903 76 0 153
-0.481116 -0.019094 -0.281691 76 153 0
0.483230 0.016706 -0.183903 127 127 0
0.452869 -0.838311 -0.310913 153 0 76
-0.476312 0.112840 0.388323 255 0 0
-0.476795 -0.512879 -0.264872 76 153 0
0.131843 0.096753 -0.231311 153 0 76
-0.024018 0.016660 0.288532 204 51 127
0.130528 0.140320 0.093168 255 0 0
-0.085450 0.016660 0.057238 76 153 0
-0.229822 0.112840 0.062407 255 0 0
0.381641 0.092253 -0.322911 0 255 0
-0.481964 -0.358352 0.298041 153 76 0
-0.338473 0.112840 0.317383 255 0 0
0.109772 0.016660 0.326614 204 51 127
0.284120 0.131231 0.386684 255 0 0
0.239931 0.015420 -0.341231 0 255 0
0.333020 0.108180 0.327448 255 0 0
-0.486301 0.094982 0.354928 0 127 127
-0.104736 0.140320 -0.069058 255 0 0
0.406054 -0.591668 -0.278112 153 0 76
0.483230 0.102589 0.161171 255 0 0
-0.193257 0.092971 -0.313751 0 255 0
0.435917 0.112840 0.260798 255 0 0
-0.506347 -0.258790 -0.299508 76 153 0
0.483230 0.092505 -0.174339 127 127 0
0.455750 -0.046565 0.008349 127 127 0
0.041761 0.067991 -0.231311 153 0 76
0.279744 0.112840 -0.162942 255 0 0
-0.258991 0.140320 -0.050649 255 0 0
0.194690 0.055025 -0.078465 153 76 0
0.347649 0.140320 -0.155199 255 0 0
0.054202 0.025820 0.066005 204 51 127
-0.244989 0.068123 -0.264788 76 0 153
-0.140144 0.025820 -0.258149 204 51 127
-0.029822 0.016660 -0.036735 204 51 127
-0.472068 0.097872 0.178422 255 0 0
0.009208 0.016660 0.141182 204 51 127
0.194690 0.077032 0.207077 153 76 0
-0.433543 0.010696 0.327448 0 127 127
-0.463279 -0.049665 0.336008 0 127 127
0.213010 0.054067 -0.220985 153 76 0
-0.470916 0.140320 -0.308158 255 0 0
0.245070 -0.010626 -0.072069 127 127 0
-0.023562 0.016660 -0.149484 76 153 0
-0.088011 0.065406 -0.231311 153 0 76
0.145693 0.025820 -0.238688 204 51 127
-0.263309 0.069722 -0.202146 76 0 153
0.177976 0.140320 -0.115441 255 0 0
0.221901 0.140320 0.295018 255 0 0
-0.406907 0.102290 -0.341231 255 0 0
-0.348658 0.140320 -0.253493 255 0 0
-0.159970 0.140320 -0.287807 255 0 0
-0.510477 -0.837773 -0.296958 76 153 0
-0.506049 0.051181 0.218035 127 0 127
0.413828 -0.438927 0.287800 76 0 153
0.488362 -0.313279 -0.329888 153 0 76
-0.515209 0.091666 -0.007236 127 0 127
0.120804 0.140320 0.326851 255 0 0
-0.072661 0.112840 -0.056079 255 0 0
-0.489534 0.100826 0.295388 153 76 0
0.458947 0.140320 -0.197581 255 0 0
-0.506049 -0.001630 0.180466 127 0 127
0.516712 0.130964 -0.339854 255 0 0
-0.267889 0.022493 -0.234157 76 0 153
0.076931 0.140320 -0.130504 255 0 0
-0.526508 -0.022317 -0.116496 127 0 127
-0.552002 -0.131437 0.333538 153 76 0
0.389624 0.003724 0.327448 0 127 127
0.225457 0.002920 0.151271 153 76 0
0.056129 0.097965 -0.231311 153 0 76
-0.240128 0.112840 0.291720 76 0 153
-0.073272 0.140320 -0.140311 255 0 0
-0.364111 0.042710 0.354928 0 127 127
0.445726 -0.161915 -0.344398 153 0 76
0.148774 0.025820 0.226529 204 51 127
0.385539 0.112840 -0.274490 255 0 0
-0.029854 0.077960 -0.231311 153 0 76
-0.013697 0.094566 -0.313751 0 255 0
-0.184680 0.112840 -0.163719 255 0 0
0.355645 0.099897 0.306267 255 0 0
0.011783 0.140320 -0.290270 255 0 0
0.198409 0.091493 0.354928 153 76 0
-0.295369 -0.007319 0.189841 76 0 153
0.199195 0.140320 0.015325 255 0 0
-0.172422 0.140320 0.045387 255 0 0
0.190110 -0.003768 0.182730 127 127 0
-0.267889 0.072298 -0.247888 76 0 153
-0.484513 0.062678 0.354928 153 76 0
-0.240409 -0.012370 0.191365 0 255 0
0.036880 0.003394 0.368667 76 0 153
-0.443295 0.140320 -0.242535 255 0 0
0.207925 -0.024560 -0.223970 127 127 0
-0.268783 0.112840 -0.080767 76 0 153
-0.244989 0.064113 0.251066 76 0 153
-0.128022 0.140320 -0.164920 255 0 0
0.211361 0.108260 0.211622 153 76 0
0.419080 -0.404209 0.291854 76 0 153
-0.533529 0.079048 -0.134972 127 0 127
-0.515752 -0.055766 -0.030919 127 0 127
0.013264 0.002920 -0.114976 76 153 0
0.407282 0.062370 -0.313751 0 255 0
-0.263309 0.075791 -0.091503 76 0 153
-0.180833 0.025820 0.084836 204 51 127
0.331517 0.020898 -0.313751 0 255 0
-0.533529 0.018020 0.035140 127 0 127
0.412605 -0.049132 0.341204 76 0 153
0.499552 -0.116213 -0.351588 153 0 76
-0.244989 0.050239 -0.045652 76 0 153
-0.257472 0.096315 0.368667 76 0 153
0.333264 -0.004320 0.336179 0 127 127
-0.056449 0.016660 -0.057869 76 153 0
0.349374 0.112840 0.349922 0 127 127
0.106677 0.140320 -0.136883 255 0 0
0.028941 0.112840 0.076405 255 0 0
-0.295369 0.078891 -0.215480 76 0 153
-0.120634 0.016660 0.285082 204 51 127
0.274592 0.140320 0.362814 255 0 0
-0.256924 0.036532 0.368667 76 0 153
-0.115146 0.002920 -0.279475 153 0 76
0.337217 0.140320 0.260384 255 0 0
-0.431355 0.112840 0.281164 255 0 0
0.455750 -0.020126 0.009002 127 127 0
0.194690 0.065265 0.012964 153 76 0
-0.486764 0.000603 -0.281691 76 153 0
0.405253 0.007942 0.354928 0 127 127
0.134881 0.112840 0.347489 255 0 0
0.441009 0.107834 -0.212313 255 0 0
-0.537906 -0.106896 0.307427 153 76 0
0.428994 0.089382 -0.322911 0 255 0
-0.388473 0.112840 0.150563 255 0 0
0.292240 0.051291 0.327448 0 127 127
-0.153286 -0.030010 -0.341231 0 255 0
-0.495145 -0.053686 -0.281691 76 153 0
-0.272300 -0.024560 0.084889 0 255 0
-0.403213 0.140320 -0.286486 255 0 0
0.077562 0.095518 0.368667 76 0 153
-0.153570 0.001502 -0.341231 0 255 0
-0.228234 0.112840 -0.021479 255 0 0
0.483230 0.111559 -0.278903 255 0 0
0.130403 0.025820 0.216589 204 51 127
-0.110083 0.002920 -0.301610 153 0 76
0.154823 -0.024560 -0.260868 153 0 76
-0.499117 -0.542392 0.293246 153 76 0
-0.503233 -0.427979 -0.273357 76 153 0
0.245070 0.044655 0.320758 0 127 127
-0.444453 0.140320 -0.274283 255 0 0
0.388743 0.016641 0.354928 0 127 127
-0.499373 -0.004861 0.336608 153 76 0
-0.303057 0.140320 0.115706 255 0 0
0.213010 0.058669 -0.129112 153 76 0
0.074034 0.016660 -0.083817 204 51 127
-0.163990 -0.044793 0.354928 0 127 127
0.229143 -0.024560 -0.099250 127 127 0
0.367075 0.112840 0.286618 255 0 0
-0.263309 0.090829 0.174384 76 0 153
-0.079904 0.025820 0.348259 204 51 127
0.455750 0.017858 0.005547 127 127 0
0.087295 0.140320 0.255498 255 0 0
0.209582 0.112840 0.381833 255 0 0
-0.267224 -0.024560 -0.080343 0 255 0
-0.533529 0.025449 -0.313167 76 153 0
-0.485532 0.140320 -0.106110 255 0 0
0.455750 0.053567 -0.045457 127 127 0
-0.515209 0.079879 0.308118 127 0 127
0.237282 0.140320 0.194514 255 0 0
0.429930 -0.061111 0.295388 76 0 153
0.439883 -0.786922 0.333180 76 0 153
-0.290321 0.112840 -0.233651 255 0 0
-0.137993 0.112840 -0.282403 255 0 0
-0.380410 0.140320 0.243033 255 0 0
-0.497276 0.112840 -0.082951 255 0 0
0.376330 0.102697 0.324120 255 0 0
0.410214 -0.658000 -0.285016 153 0 76
-0.013201 0.016660 -0.257353 204 51 127
-0.473989 0.102704 -0.299889 76 153 0
-0.151435 0.112840 0.343414 76 0 153
0.051556 0.140320 -0.163000 255 0 0
0.032177 -0.029460 0.354928 0 127 127
-0.199237 0.112840 -0.087150 255 0 0
0.230319 -0.024560 -0.293605 127 127 0
-0.198102 0.140320 -0.046739 255 0 0
0.005920 0.140320 0.212847 255 0 0
-0.501913 -0.715693 -0.283176 76 153 0
-0.161336 0.071734 -0.313751 0 255 0
-0.129905 0.001867 -0.240471 204 51 127
-0.357091 0.131147 -0.373303 255 0 0
0.257361 0.140320 0.225257 255 0 0
0.508202 0.135672 -0.358562 255 0 0
-0.028815 0.112840 0.144454 255 0 0
-0.452579 0.112840 -0.214649 255 0 0
-0.231496 0.016660 -0.243417 204 51 127
0.135656 0.025820 -0.177154 204 51 127
-0.090851 0.008849 0.341188 0 127 127
-0.002593 0.112840 0.227734 255 0 0
0.358972 0.085360 -0.297630 255 0 0
-0.524342 -0.008489 -0.215687 127 0 127
-0.085945 0.016660 -0.096345 204 51 127
-0.495317 -0.154744 0.334993 153 76 0
0.016364 0.112840 0.135563 255 0 0
0.483230 0.023701 -0.073753 127 127 0
0.501758 -0.132157 0.358806 76 0 153
-0.220392 0.140320 -0.139517 255 0 0
0.101076 0.112840 0.142079 255 0 0
0.140983 0.025820 0.324415 204 51 127
0.455750 0.068802 -0.017450 127 127 0
-0.279412 0.112840 0.228657 255 0 0
0.457944 -0.020343 0.133966 127 127 0
-0.000176 -0.008648 -0.313751 153 0 76
0.015638 0.016660 -0.226016 76 153 0
-0.510613 -0.228370 -0.360103 76 153 0
-0.352074 0.112840 -0.284534 255 0 0
-0.025957 0.002920 -0.268845 76 153 0
0.125537 0.140320 0.358515 255 0 0
0.194690 0.039055 -0.169100 153 76 0
-0.392266 0.099659 -0.286424 255 0 0
0.217590 0.014638 -0.053601 153 76 0
-0.444400 0.112840 -0.191636 255 0 0
-0.306486 0.107599 -0.313751 0 255 0
-0.533529 0.054639 0.033544 127 0 127
0.507800 0.112840 0.097231 255 0 0
0.074589 0.112840 -0.359140 255 0 0
-0.049977 0.112840 0.329712 255 0 0
0.483230 0.059313 -0.232042 127 127 0
-0.526575 -0.181357 -0.305067 76 153 0
-0.252683 -0.024560 0.157135 0 255 0
-0.292745 -0.024560 0.099922 0 255 0
-0.121796 0.140320 -0.040473 255 0 0
0.147022 -0.048091 0.354928 0 127 127
-0.194539 0.016660 0.242741 204 51 127
0.383578 0.112840 -0.050246 255 0 0
-0.147122 0.057806 -0.249631 153 0 76
0.019499 0.112840 -0.340199 255 0 0
-0.301340 0.112840 0.129552 255 0 0
0.415584 0.085360 -0.166562 255 0 0
0.119186 -0.024560 -0.305776 153 0 76
0.295883 0.098598 -0.341231 0 255 0
-0.484227 0.130548 0.391567 255 0 0
-0.056096 0.076486 -0.341231 0 255 0
-0.547889 0.112840 0.123385 255 0 0
-0.183129 0.112840 -0.264438 255 0 0
-0.410830 0.112840 0.321899 255 0 0
-0.301741 0.112840 0.254512 255 0 0
0.088779 0.037278 -0.231311 153 0 76
0.483230 -0.013290 -0.033908 127 127 0
-0.531616 -0.024214 -0.281691 127 0 127
0.333333 0.112840 0.275437 255 0 0
-0.244989 0.033862 -0.184787 76 0 153
0.197359 0.016660 0.045738 153 76 0
-0.110437 0.107559 -0.341231 255 0 0
0.201342 0.025820 0.166407 153 76 0
-0.265928 0.076464 -0.341231 0 255 0
0.454917 -0.755055 0.328188 76 0 153
0.223960 0.002920 0.109307 127 127 0
0.466616 0.140320 0.012821 255 0 0
0.483230 -0.025860 -0.273662 127 127 0
-0.496714 -0.632368 -0.298382 76 153 0
-0.464768 -0.457374 -0.269513 76 153 0
-0.316250 0.112840 0.230749 255 0 0
0.425095 0.002466 0.336608 0 127 127
-0.111951 0.041161 -0.249631 153 0 76
-0.020862 0.042948 0.411288 0 127 127
0.483230 -0.009940 0.105391 127 127 0
-0.342627 0.024742 0.327448 0 127 127
-0.374131 0.112840 -0.282530 255 0 0
-0.274592 0.140320 -0.241715 255 0 0
0.290062 0.112840 0.153796 255 0 0
-0.154907 0.016660 -0.250450 204 51 127
-0.234751 0.025820 0.005469 204 51 127
0.217590 0.039639 -0.156982 153 76 0
0.446325 -0.219880 0.359405 76 0 153
-0.503207 -0.234923 -0.302839 76 153 0
0.132021 0.131062 0.390841 255 0 0
-0.085337 0.058686 -0.313751 0 255 0
-0.544899 0.112840 -0.032790 255 0 0
-0.524015 -0.094310 0.303786 153 76 0
-0.198990 -0.062465 -0.322567 0 255 0
0.455750 -0.032235 0.039841 127 127 0
-0.251871 0.016660 -0.031977 76 0 153
-0.516611 0.140320 0.279754 255 0 0
0.474682 0.112840 0.144680 255 0 0
0.058131 0.112840 -0.172031 255 0 0
-0.286305 0.140320 0.088216 255 0 0
-0.047770 0.140320 -0.005517 255 0 0
0.245101 0.025373 0.354928 0 127 127
-0.267889 0.037135 0.056950 76 0 153
-0.171188 0.016660 0.026747 204 51 127
0.314885 0.094996 -0.341231 0 255 0
-0.399651 0.112840 0.059520 255 0 0
-0.263309 0.068835 -0.067731 76 0 153
-0.106770 0.140320 0.277864 255 0 0
0.217590 0.095102 -0.215521 153 76 0
-0.128662 0.097911 -0.341231 0 255 0
-0.489618 0.009678 0.354928 153 76 0
0.196236 0.140320 0.216748 255 0 0
0.387701 0.112840 -0.314348 0 255 0
0.460944 0.112840 -0.338243 153 0 76
-0.244989 0.026751 0.251235 204 51 127
-0.486175 0.024679 -0.341231 0 255 0
0.423690 -0.022008 0.347073 0 127 127
-0.506049 0.037435 0.191092 127 0 127
-0.175435 0.025820 0.171291 204 51 127
0.025463 0.002920 0.224255 76 153 0
-0.276734 0.140320 -0.343027 255 0 0
-0.013975 -0.017041 0.354928 0 127 127
0.444954 -0.666014 -0.269007 153 0 76
0.346514 0.140320 0.086780 255 0 0
0.223450 0.049849 -0.341231 0 255 0
0.372945 0.112840 -0.000281 255 0 0
0.414674 -0.540323 0.277519 76 0 153
0.205474 0.002920 0.278439 153 76 0
0.455750 0.001493 0.053668 127 127 0
-0.329455 0.112840 -0.089775 255 0 0
0.052674 -0.005870 0.368667 76 0 153
0.476435 -0.362140 -0.334395 153 0 76
0.450659 -0.488527 0.325862 76 0 153
-0.549643 -0.254452 0.332785 153 76 0
0.203233 0.002920 -0.198983 127 127 0
0.464910 0.094486 -0.140471 127 127 0
-0.132069 0.130956 -0.376365 255 0 0
-0.240409 -0.007723 -0.260780 153 0 76
-0.479798 -0.784877 0.315490 153 76 0
-0.119048 -0.019605 -0.341231 0 255 0
0.217590 0.108749 -0.040970 153 76 0
-0.045734 0.140320 0.153530 255 0 0
0.245070 0.112783 0.003600 255 0 0
-0.506049 0.020098 0.284391 127 0 127
0.281836 0.112840 0.176176 255 0 0
-0.142720 0.025820 -0.001894 204 51 127
0.375576 0.140320 -0.137541 255 0 0
-0.494899 -0.392145 0.341679 153 76 0
0.428575 0.112840 -0.014768 255 0 0
-0.280836 0.002920 0.092325 76 0 153
-0.263309 0.087214 0.211923 76 0 153
0.392783 0.070424 0.354928 0 127 127
0.076441 0.105605 0.341188 76 0 153
0.201391 0.027673 0.354373 76 0 153
-0.006479 -0.023352 -0.341231 0 255 0
-0.295369 0.034325 0.169589 76 0 153
-0.295369 0.043239 0.285416 76 0 153
-0.116144 -0.058336 0.334577 0 127 127
-0.034860 -0.038022 -0.341231 0 255 0
0.464910 0.089775 -0.225964 127 127 0
0.213010 0.101161 0.085916 153 76 0
0.194690 0.077318 0.140616 153 76 0
0.365637 0.112840 0.384419 255 0 0
-0.047735 0.016660 -0.119234 76 153 0
0.020077 -0.035628 -0.313751 0 255 0
0.303607 0.140320 -0.193097 255 0 0
-0.439874 -0.010256 -0.313751 0 255 0
0.225192 -0.048189 -0.331946 0 255 0
0.105449 0.025820 0.200260 204 51 127
0.093106 0.140320 0.351053 255 0 0
0.058488 0.140320 0.359842 255 0 0
-0.506049 0.069425 0.229100 127 0 127
-0.098310 0.025820 0.336486 76 0 153
-0.099973 0.140320 0.207678 255 0 0
0.243659 0.112840 -0.017849 153 76 0
0.455750 0.083208 -0.264219 127 127 0
0.229538 0.140320 0.015962 255 0 0
-0.290632 0.074728 0.327448 0 127 127
0.455750 0.100679 0.196121 127 127 0
0.194690 0.090930 0.178702 153 76 0
0.461542 -0.041452 -0.341231 153 0 76
-0.495503 -0.723808 0.324219 153 76 0
0.056562 -0.051777 -0.313751 0 255 0
-0.534073 0.140320 0.077937 255 0 0
-0.496798 -0.635565 0.283005 153 76 0
0.217590 0.034944 0.102358 153 76 0
-0.295369 -0.009007 -0.186287 0 255 0
-0.219472 0.060640 -0.313751 0 255 0
0.019958 0.112840 0.278138 255 0 0
-0.519519 0.112840 0.162867 127 0 127
-0.103157 0.067575 -0.341231 0 255 0
0.359463 0.140320 0.309355 255 0 0
-0.270329 0.002920 -0.167736 76 0 153
0.030410 -0.015303 0.327448 0 127 127
-0.533529 0.098846 -0.208889 127 0 127
0.230876 -0.024560 0.067936 127 127 0
-0.083245 -0.006910 -0.240471 153 0 76
0.352239 0.140320 -0.114717 255 0 0
-0.425162 0.109202 -0.313751 0 255 0
0.473850 -0.010034 -0.220063 127 127 0
0.490844 -0.086560 0.332914 76 0 153
0.483230 0.012285 0.312846 76 0 153
-0.426489 0.140320 0.034723 255 0 0
-0.339688 0.112840 0.350083 0 127 127
0.213613 -0.014368 -0.341231 0 255 0
-0.533109 -0.060104 -0.277142 127 0 127
0.194690 0.028296 -0.224874 204 51 127
0.190331 0.009238 -0.313751 0 255 0
-0.552504 -0.227006 0.362209 153 76 0
0.032724 0.025820 0.046733 204 51 127
-0.398845 0.085360 0.317668 255 0 0
-0.462492 -0.672941 0.283437 153 76 0
0.457822 -0.369178 0.296341 76 0 153
-0.476274 -0.076512 -0.337190 76 153 0
-0.365030 0.112840 0.148325 255 0 0
-0.497132 -0.213006 -0.331895 76 153 0
-0.084025 -0.056713 0.327448 0 127 127
-0.497702 0.112840 0.333873 0 127 127
0.051131 0.112840 0.049673 255 0 0
0.172457 0.003012 0.341188 0 127 127
0.196205 0.049201 0.354928 76 0 153
0.168859 -0.018076 0.354928 0 127 127
-0.176522 0.105527 -0.231311 153 0 76
-0.140925 0.025820 -0.039553 204 51 127
0.069458 0.016660 -0.140278 204 51 127
-0.156807 0.021798 -0.313751 0 255 0
-0.570168 0.130344 -0.053991 255 0 0
0.207407 -0.024560 -0.070838 127 127 0
-0.238488 0.112840 0.107264 255 0 0
-0.019247 0.112840 0.294735 255 0 0
0.458883 0.140320 -0.240690 255 0 0
0.357632 0.140320 0.213569 255 0 0
-0.516909 0.140320 -0.042215 255 0 0
0.238543 0.140320 0.148113 255 0 0
-0.027788 0.063987 0.368667 76 0 153
-0.080109 0.016008 -0.056019 204 51 127
0.046091 0.140320 -0.024308 255 0 0
-0.064192 0.047778 -0.249631 153 0 76
-0.027923 0.140320 0.173999 255 0 0
0.103503 0.016660 0.256331 204 51 127
-0.117614 0.016660 0.221318 204 51 127
-0.035043 0.140320 0.341340 255 0 0
-0.295369 -0.006130 0.127335 0 255 0
-0.540082 -0.307511 0.307106 153 76 0
-0.457141 0.140320 0.271623 255 0 0
-0.194807 0.016660 -0.238405 204 51 127
-0.183187 0.016660 0.206075 204 51 127
-0.295369 -0.018341 -0.275846 0 255 0
-0.524458 0.112840 -0.252068 127 0 127
0.215917 0.068930 0.354928 76 0 153
-0.090742 0.112840 -0.165299 255 0 0
0.477955 0.140320 0.128803 255 0 0
-0.105274 0.140320 0.335354 255 0 0
0.150289 0.140320 -0.189369 255 0 0
0.430098 -0.507662 0.323635 76 0 153
0.015089 0.016660 0.087967 204 51 127
0.213010 0.017838 -0.145879 204 51 127
-0.533529 0.109945 -0.126895 127 0 127
0.455750 0.105554 0.062559 127 127 0
-0.442736 0.112840 0.191595 255 0 0
0.227150 0.024761 -0.327491 0 255 0
-0.034518 0.016660 0.102959 204 51 127
0.090534 0.112840 0.373895 255 0 0
-0.194944 -0.024560 -0.301602 0 255 0
-0.047343 0.016660 -0.155707 204 51 127
0.213010 0.062198 0.055496 153 76 0
-0.018151 0.140320 0.302861 255 0 0
0.164917 0.112840 0.269684 255 0 0
0.456260 0.035968 0.354928 76 0 153
0.465973 0.140320 -0.362002 255 0 0
0.032388 -0.047693 0.354928 0 127 127
0.438702 0.034817 -0.341231 153 0 76
-0.321814 0.112840 -0.347202 255 0 0
0.078165 0.112840 0.151404 255 0 0
-0.478016 -0.349531 -0.320796 76 153 0
-0.335185 0.112840 0.019251 255 0 0
0.234924 0.112840 -0.344943 255 0 0
0.126321 0.016660 -0.249788 204 51 127
0.164589 0.112840 0.381451 255 0 0
0.483230 0.014777 0.164143 127 127 0
-0.191081 0.140320 -0.074571 255 0 0
-0.459022 0.037129 0.327448 0 127 127
-0.293639 0.140320 -0.220815 255 0 0
-0.188703 0.140320 -0.321172 255 0 0
0.455750 0.031666 -0.187150 127 127 0
0.179037 0.025820 0.074686 204 51 127
0.466557 -0.034450 0.354928 76 0 153
0.400278 -0.013184 -0.341231 0 255 0
0.455750 0.061931 -0.263052 127 127 0
-0.057116 0.016660 0.043145 204 51 127
0.031758 0.112840 -0.023520 255 0 0
-0.306356 0.112840 0.274931 255 0 0
-0.422876 0.069396 0.354928 0 127 127
-0.373225 0.043513 0.327448 0 127 127
0.036716 0.140320 0.212737 255 0 0
0.187253 0.140320 -0.026297 255 0 0
-0.009052 0.112840 -0.008074 255 0 0
0.410697 0.140320 0.074976 255 0 0
-0.262458 0.112840 0.284737 76 0 153
0.304188 0.112840 -0.221449 255 0 0
0.455750 0.075055 0.175836 255 0 0
0.226191 0.090004 0.354928 0 127 127
-0.355157 0.140320 -0.115248 255 0 0
0.242046 0.112840 -0.310123 153 76 0
0.483230 0.044420 -0.007453 127 127 0
-0.533529 0.039112 0.249041 127 0 127
0.013107 0.002920 -0.031853 76 153 0
0.154690 -0.012870 0.368153 76 0 153
-0.236799 0.060527 -0.249631 153 0 76
-0.418589 0.085856 -0.304768 255 0 0
-0.074038 0.112840 0.104758 255 0 0
-0.006829 0.007057 -0.061268 204 51 127
0.194690 0.103949 -0.169616 153 76 0
-0.514993 0.085360 -0.091800 127 0 127
0.245070 0.044609 -0.126584 153 76 0
-0.060893 0.002920 0.030422 76 153 0
0.225551 0.140320 0.055436 255 0 0
0.143112 0.008707 0.354928 76 0 153
-0.459126 0.098537 -0.322911 0 255 0
-0.325412 0.140320 -0.021791 255 0 0
0.464886 -0.063134 -0.001743 127 127 0
0.464910 0.016614 0.304239 127 127 0
-0.087257 0.025820 0.236245 204 51 127
0.104180 0.045700 0.341188 76 0 153
0.234937 0.140320 0.258543 255 0 0
0.425901 -0.586204 0.277583 76 0 153
0.245070 0.078569 0.257588 153 76 0
-0.512930 0.099100 0.110403 127 0 127
0.130604 0.140320 0.209706 255 0 0
0.217590 0.071154 0.110945 153 76 0
-0.263309 0.038815 0.203000 76 0 153
0.467243 -0.006049 -0.341231 153 0 76
-0.025529 0.015123 0.354928 76 0 153
-0.105762 0.126213 -0.377871 255 0 0
0.475853 -0.045398 -0.050564 127 127 0
0.009009 -0.051692 -0.341231 0 255 0
0.455093 -0.744920 -0.297431 153 0 76
0.423690 -0.046033 0.310721 76 0 153
0.185314 0.016660 -0.174083 204 51 127
-0.528812 -0.353155 0.348653 153 76 0
0.382935 0.140320 -0.222129 255 0 0
0.137723 0.112840 0.152081 255 0 0
0.126638 0.140320 -0.103464 255 0 0
-0.099973 0.016660 -0.208604 204 51 127
-0.240409 -0.000365 -0.218649 76 0 153
-0.497386 -0.417474 0.288664 153 76 0
-0.295369 0.074106 0.249485 76 0 153
-0.223828 0.140320 0.144559 255 0 0
0.232563 0.002920 -0.049424 127 127 0
-0.416864 0.112840 -0.072584 255 0 0
-0.481893 -0.728712 -0.277334 76 153 0
-0.515025 0.085360 0.069712 127 0 127
0.230756 0.002920 -0.083802 153 76 0
-0.284331 0.075805 -0.341231 0 255 0
-0.526748 0.140320 0.252713 255 0 0
-0.006829 0.002593 0.073660 76 153 0
-0.041819 -0.010820 0.121984 76 153 0
-0.180514 0.112840 -0.060021 255 0 0
-0.527024 0.112840 0.046868 127 0 127
-0.493949 0.074333 0.295388 153 76 0
-0.295369 0.016212 0.069356 76 0 153
0.357803 0.112840 0.013119 255 0 0
0.090318 -0.046235 0.354928 0 127 127
-0.467364 0.112840 -0.117466 255 0 0
-0.475865 0.140320 -0.271486 255 0 0
-0.495941 0.140320 -0.160681 255 0 0
-0.369318 0.112840 0.266527 255 0 0
-0.491797 -0.132165 -0.342980 76 153 0
0.190110 -0.023998 -0.132772 127 127 0
-0.055324 0.025820 0.061100 204 51 127
-0.510492 0.112840 -0.370347 255 0 0
0.244006 0.052263 -0.341231 0 255 0
0.088783 0.011380 -0.313751 0 255 0
0.067234 0.064307 -0.341231 0 255 0
0.245070 -0.006520 0.250948 127 127 0
0.483230 0.051202 -0.043129 127 127 0
0.384120 0.112840 0.077120 255 0 0
-0.475505 -0.074442 -0.301961 76 153 0
0.444587 0.047679 -0.281691 153 0 76
-0.152135 0.112840 0.278678 255 0 0
-0.478300 -0.347712 0.311800 153 76 0
-0.334563 0.112840 0.261305 255 0 0
-0.163356 0.016660 0.240029 204 51 127
-0.500860 -0.485897 0.326198 153 76 0
0.244635 0.112840 0.094827 153 76 0
-0.511296 -0.004175 -0.182594 127 0 127
0.230237 0.140320 0.321210 255 0 0
-0.533529 0.055612 0.102246 127 0 127
0.194690 0.039822 0.081055 153 76 0
-0.050253 -0.014257 -0.240471 153 0 76
0.401685 0.036054 0.327448 0 127 127
0.483230 0.057395 0.222894 127 127 0
-0.225634 0.073829 -0.231311 153 0 76
0.245070 0.018800 -0.044054 153 76 0
0.447321 -0.197405 0.371090 76 0 153
-0.462927 0.140320 0.042124 255 0 0
-0.023188 -0.010820 -0.081413 76 153 0
0.198145 0.140320 -0.341451 255 0 0
0.285108 0.140320 -0.087120 255 0 0
0.483230 0.019297 0.127896 127 127 0
-0.506557 -0.837799 -0.329374 76 153 0
0.244124 0.112840 -0.048917 153 76 0
0.101166 0.025820 0.008372 204 51 127
0.491642 -0.199775 -0.305322 153 0 76
-0.295369 0.002657 -0.305583 0 255 0
-0.471159 -0.393061 -0.282834 76 153 0
0.332165 0.140320 -0.251623 255 0 0
-0.263309 0.068213 0.098573 76 0 153
-0.292978 0.140320 0.049913 255 0 0
0.206227 0.002920 0.177735 153 76 0
-0.244989 0.034260 -0.060834 76 0 153
0.466183 -0.031958 0.322868 76 0 153
-0.361122 0.025218 0.354928 0 127 127
-0.295369 0.075310 -0.071015 76 0 153
-0.244989 0.082616 0.143592 76 0 153
-0.244989 0.081083 -0.140660 76 0 153
-0.253088 0.002920 -0.055523 76 0 153
-0.462778 -0.486271 -0.312454 76 153 0
0.007575 0.002920 -0.187130 76 153 0
0.066753 0.140320 0.301965 255 0 0
-0.121247 0.140320 0.063137 255 0 0
0.328869 0.140320 -0.198142 255 0 0
-0.058033 -0.056530 0.350029 0 127 127
-0.191960 -0.042895 0.354928 0 127 127
0.194690 0.049539 0.186626 153 76 0
-0.184325 0.129584 -0.377871 255 0 0
-0.277758 -0.034174 -0.341231 0 255 0
0.483792 0.140320 0.005723 255 0 0
-0.191142 0.112840 -0.180218 255 0 0
0.194690 0.067332 -0.135689 153 76 0
-0.411285 0.112840 0.117850 255 0 0
0.355208 0.038812 -0.341231 0 255 0
0.245070 0.068263 -0.286855 153 76 0
0.160581 0.140320 0.143107 255 0 0
-0.533529 0.044143 -0.036520 127 0 127
0.016471 0.140320 0.140718 255 0 0
-0.028210 0.125835 -0.377871 255 0 0
-0.240312 0.020114 0.354928 204 51 127
-0.056229 0.112840 -0.153473 255 0 0
-0.093887 0.051666 -0.341231 0 255 0
0.087139 0.130193 -0.377871 255 0 0
0.280998 0.112840 -0.119982 255 0 0
-0.244989 0.038050 0.075721 76 0 153
0.196297 0.140320 -0.202116 255 0 0
-0.451930 0.112840 -0.358414 255 0 0
-0.240409 -0.002862 -0.163167 0 255 0
-0.006829 -0.000036 -0.232351 76 153 0
-0.239811 0.016660 0.279932 76 0 153
0.004224 0.101463 -0.249631 153 0 76
